0.0527344	0.129743	0.846161
0.0527344	0.13365	0.846164
0.0527344	0.141462	0.846003
-0.240234	-0.0577567	0.849571
-0.416016	0.1024	0.872559
-0.416016	0.106306	0.872645
-0.416016	0.110212	0.872643
-0.416016	0.114118	0.872918
-0.396484	0.180525	0.892431
-0.396484	0.254743	0.892215
-0.396484	0.25865	0.892339
-0.416016	0.114118	0.876465
-0.416016	0.118025	0.876539
-0.416016	0.121931	0.876723
-0.416016	0.125837	0.876867
-0.212891	-0.0694755	0.830036
-0.287109	-0.030413	0.860953
-0.255859	-0.046038	0.845416
-0.388672	0.211775	0.872837
-0.388672	0.215681	0.873016
-0.388672	0.219587	0.872871
-0.388672	0.231306	0.872875
-0.388672	0.235212	0.873026
-0.427734	0.1024	0.888191
-0.427734	0.106306	0.888306
-0.427734	0.110212	0.888464
-0.427734	0.114118	0.888634
-0.400391	0.180525	0.888235
-0.400391	0.184431	0.888353
-0.400391	0.188337	0.888449
-0.392578	0.207868	0.876851
-0.392578	0.2274	0.876908
-0.427734	0.114118	0.892206
-0.427734	0.118025	0.892393
-0.248047	-0.0499442	0.841495
0.0644531	0.129743	0.822293
0.0644531	0.13365	0.822325
0.0644531	0.137556	0.822425
0.0644531	0.141462	0.822302
0.0644531	0.149275	0.822315
0.0644531	0.153181	0.822405
0.0644531	0.157087	0.822451
0.0644531	0.160993	0.822512
0.0644531	0.1649	0.822471
0.0644531	0.168806	0.822416
0.0644531	0.172712	0.82238
0.0644531	0.176618	0.822475
-0.0644531	-0.0265067	0.80284
-0.0449219	-0.030413	0.814328
-0.0449219	-0.0265067	0.814369
-0.0371094	-0.0421317	0.822639
-0.0371094	-0.0382255	0.8225
-0.361328	-0.0108817	0.868906
-0.404297	0.180525	0.884308
-0.404297	0.184431	0.884366
-0.404297	0.188337	0.884429
-0.404297	0.192243	0.884715
-0.396484	-0.00306922	0.888648
-0.232422	-0.061663	0.853511
-0.0371094	-0.0382255	0.818491
-0.404297	0.180525	0.880393
-0.404297	0.184431	0.880489
-0.404297	0.188337	0.880858
-0.419922	0.118025	0.884277
-0.419922	0.121931	0.884353
-0.419922	0.125837	0.884505
0.0566406	0.0672433	0.845737
0.0566406	0.0711495	0.84587
0.0566406	0.0750558	0.845852
0.0566406	0.078962	0.845899
0.0566406	0.0828683	0.84588
0.0566406	0.0867745	0.84591
0.0566406	0.0906808	0.845918
0.0566406	0.094587	0.845875
0.0566406	0.0984933	0.845866
-0.232422	-0.061663	0.833972
-0.419922	0.106306	0.880371
-0.419922	0.110212	0.88038
-0.419922	0.114118	0.880792
-0.220703	-0.0655692	0.837847
-0.400391	-0.00306922	0.884597
-0.251953	-0.0499442	0.84561
-0.384766	0.239118	0.872632
-0.384766	0.243025	0.872559
-0.384766	0.246931	0.872559
-0.384766	0.250837	0.872579
-0.384766	0.254743	0.872602
-0.279297	-0.0343192	0.856946
0.0683594	0.1024	0.822363
0.0683594	0.106306	0.82246
0.0683594	0.110212	0.822319
0.0683594	0.114118	0.822416
0.0683594	0.118025	0.822483
0.0683594	0.121931	0.822603
0.0683594	0.125837	0.822615
0.0683594	0.145368	0.822745
-0.392578	0.184431	0.89238
-0.392578	0.188337	0.89254
-0.228516	-0.061663	0.849554
-0.388672	-0.00697547	0.87332
-0.412109	0.118025	0.872559
-0.412109	0.121931	0.872572
-0.412109	0.125837	0.872774
-0.412109	0.129743	0.872848
-0.412109	0.13365	0.872944
-0.412109	0.137556	0.872977
-0.380859	-0.00697547	0.88081
-0.388672	0.211775	0.876832
-0.388672	0.215681	0.87677
-0.388672	0.219587	0.876665
-0.388672	0.223493	0.876562
-0.388672	0.231306	0.876556
-0.388672	0.235212	0.8765
-0.388672	0.239118	0.876652
-0.388672	0.246931	0.876559
-0.388672	0.250837	0.876823
-0.279297	-0.0343192	0.86088
-0.439453	0.0750558	0.896127
-0.439453	0.0828683	0.896091
-0.439453	0.0867745	0.896
-0.439453	0.0906808	0.896192
-0.439453	0.094587	0.896433
0.0605469	0.0555245	0.846107
0.0605469	0.0594308	0.846123
0.0605469	0.063337	0.846115
-0.244141	-0.0538505	0.841683
-0.212891	-0.0694755	0.82613
-0.396484	0.192243	0.888657
-0.396484	0.235212	0.888455
-0.412109	0.129743	0.876465
-0.412109	0.13365	0.876465
-0.412109	0.137556	0.876551
-0.412109	0.141462	0.876835
-0.0292969	-0.0382255	0.822178
-0.416016	0.129743	0.884277
-0.416016	0.13365	0.884277
-0.416016	0.137556	0.884398
-0.416016	0.141462	0.884513
-0.416016	0.145368	0.884669
-0.423828	0.121931	0.892104
-0.423828	0.125837	0.892175
-0.423828	0.129743	0.892563
-0.423828	0.13365	0.892553
-0.423828	0.118025	0.88829
-0.361328	-0.0108817	0.865059
-0.384766	-0.00306922	0.892468
-0.400391	0.19615	0.884466
-0.400391	0.200056	0.884426
-0.400391	0.203962	0.884624
-0.416016	0.118025	0.880371
-0.416016	0.121931	0.880375
-0.416016	0.125837	0.880672
-0.416016	0.129743	0.880751
-0.400391	0.192243	0.880371
-0.400391	0.19615	0.880486
-0.400391	0.200056	0.880689
-0.400391	0.203962	0.88067
-0.00195312	-0.0265067	0.810561
-0.0292969	-0.0421317	0.818345
-0.0292969	-0.0382255	0.81827
-0.216797	-0.0694755	0.837861
-0.388672	0.192243	0.892567
-0.248047	-0.0538505	0.845639
0.0722656	0.0555245	0.822278
0.0722656	0.0594308	0.822339
0.0722656	0.063337	0.82235
0.0722656	0.0672433	0.822453
0.0722656	0.0711495	0.822525
0.0722656	0.0750558	0.822515
0.0722656	0.078962	0.82258
0.0722656	0.0828683	0.822558
0.0722656	0.0867745	0.822512
0.0722656	0.0906808	0.822663
0.0722656	0.094587	0.82268
0.0722656	0.0984933	0.822637
0.0644531	0.172712	0.818391
0.0644531	0.176618	0.818422
-0.271484	-0.0382255	0.857017
-0.0566406	-0.0265067	0.802556
-0.357422	-0.0108817	0.876589
-0.271484	-0.0382255	0.861015
-0.240234	-0.0577567	0.841782
-0.404297	0.000837028	0.896257
-0.408203	0.141462	0.872559
-0.408203	0.145368	0.872575
-0.408203	0.149275	0.872694
-0.408203	0.153181	0.872872
-0.384766	0.243025	0.876465
-0.220703	-0.0655692	0.833948
-0.380859	-0.00697547	0.872994
-0.392578	0.19615	0.888468
-0.392578	0.200056	0.888604
-0.400391	0.180525	0.896275
-0.400391	0.184431	0.896355
-0.373047	-0.00697547	0.888646
-0.419922	0.121931	0.888184
-0.419922	0.125837	0.888278
-0.419922	0.129743	0.888479
-0.0214844	-0.0421317	0.81867
-0.384766	0.19615	0.892172
-0.384766	0.200056	0.892431
-0.384766	0.203962	0.892528
-0.396484	0.207868	0.880381
-0.412109	0.13365	0.880371
-0.412109	0.137556	0.880456
-0.412109	0.141462	0.88039
-0.412109	0.145368	0.880417
-0.412109	0.149275	0.880551
-0.412109	0.157087	0.880758
-0.412109	0.160993	0.880848
-0.412109	0.149275	0.884341
-0.412109	0.153181	0.884371
-0.412109	0.157087	0.884377
-0.396484	0.207868	0.884578
-0.419922	0.137556	0.892259
-0.419922	0.141462	0.892426
-0.267578	-0.0421317	0.857387
-0.408203	0.145368	0.876465
-0.408203	0.149275	0.876567
-0.408203	0.153181	0.876665
-0.408203	0.157087	0.876556
-0.408203	0.160993	0.876575
0.0449219	0.180525	0.845822
0.0449219	0.184431	0.845875
0.0449219	0.188337	0.846041
0.0449219	0.192243	0.846019
0.0449219	0.19615	0.846036
0.0449219	0.200056	0.846077
0.0449219	0.203962	0.846053
0.0449219	0.207868	0.846095
0.0449219	0.211775	0.846083
0.0449219	0.215681	0.846095
0.0449219	0.2274	0.845703
0.0449219	0.235212	0.845756
-0.435547	0.0984933	0.895996
-0.435547	0.1024	0.896121
-0.435547	0.106306	0.896422
0.0683594	0.129743	0.818415
0.0683594	0.13365	0.818628
0.0683594	0.137556	0.818659
0.0683594	0.141462	0.818499
0.0683594	0.145368	0.818581
0.0683594	0.149275	0.818548
0.0683594	0.153181	0.818671
0.0683594	0.157087	0.818675
0.0683594	0.160993	0.818776
0.0683594	0.1649	0.818768
0.0683594	0.168806	0.818681
-0.337891	-0.014788	0.868773
-0.240234	-0.0577567	0.845661
-0.0527344	-0.0343192	0.802665
-0.0527344	-0.030413	0.802597
-0.0527344	-0.0265067	0.802786
-0.357422	-0.0108817	0.880656
-0.267578	-0.0421317	0.86127
0.0488281	0.157087	0.841823
0.0488281	0.160993	0.841803
0.0488281	0.1649	0.841885
0.0488281	0.168806	0.841928
0.0488281	0.172712	0.841903
0.0488281	0.176618	0.842051
-0.404297	0.157087	0.872559
-0.404297	0.160993	0.872559
-0.404297	0.1649	0.872639
-0.404297	0.168806	0.873031
-0.216797	-0.0694755	0.833973
-0.388672	0.203962	0.888297
-0.380859	0.207868	0.892399
-0.345703	-0.014788	0.865232
-0.373047	-0.00697547	0.884553
-0.416016	0.13365	0.888205
-0.416016	0.137556	0.888191
-0.416016	0.141462	0.88836
-0.416016	0.145368	0.888486
-0.408203	0.160993	0.884284
-0.408203	0.1649	0.884287
-0.408203	0.168806	0.884337
-0.408203	0.172712	0.884369
-0.408203	0.176618	0.884758
-0.365234	-0.00697547	0.892374
-0.396484	0.188337	0.896176
-0.396484	0.192243	0.896349
-0.396484	0.19615	0.896465
-0.392578	0.211775	0.880379
-0.392578	0.215681	0.880714
-0.392578	0.223493	0.880842
-0.392578	0.2274	0.880543
-0.392578	0.231306	0.880681
-0.228516	-0.061663	0.841707
-0.408203	0.153181	0.880371
-0.408203	0.1649	0.880391
-0.408203	0.168806	0.880397
-0.408203	0.172712	0.88085
0.0722656	0.0984933	0.818419
0.0722656	0.1024	0.818522
0.0722656	0.106306	0.818602
0.0722656	0.110212	0.818637
0.0722656	0.114118	0.818647
0.0722656	0.118025	0.818675
0.0722656	0.121931	0.81874
0.0722656	0.125837	0.818764
-0.357422	-0.0108817	0.888549
-0.259766	-0.046038	0.857306
-0.416016	0.145368	0.892289
-0.416016	0.149275	0.892429
-0.00195312	-0.0265067	0.81448
-0.392578	0.231306	0.884407
-0.392578	0.235212	0.88433
-0.392578	0.239118	0.8845
-0.431641	0.110212	0.896006
-0.431641	0.114118	0.896179
-0.431641	0.118025	0.896076
-0.404297	0.1649	0.876465
-0.404297	0.168806	0.876471
-0.404297	0.172712	0.876483
-0.404297	0.176618	0.876574
-0.353516	-0.0108817	0.880926
-0.337891	-0.014788	0.876702
0.0488281	0.219587	0.846186
0.0488281	0.223493	0.846151
0.0488281	0.231306	0.84618
-0.392578	0.200056	0.896383
-0.361328	-0.0108817	0.872968
-0.259766	-0.046038	0.861045
0.0527344	0.114118	0.841847
0.0527344	0.118025	0.841879
0.0527344	0.121931	0.841908
0.0527344	0.125837	0.841911
0.0527344	0.129743	0.841922
0.0527344	0.13365	0.841846
0.0527344	0.137556	0.841881
0.0527344	0.141462	0.841982
0.0527344	0.145368	0.842078
0.0527344	0.149275	0.842046
0.0527344	0.153181	0.842007
-0.228516	-0.061663	0.845624
-0.388672	0.219587	0.880467
-0.388672	0.235212	0.880371
-0.388672	0.239118	0.88039
-0.388672	0.243025	0.880411
-0.388672	0.254743	0.880498
-0.400391	0.172712	0.872559
-0.400391	0.176618	0.872559
-0.412109	0.149275	0.888312
-0.412109	0.153181	0.888422
-0.412109	0.157087	0.888388
-0.412109	0.160993	0.888498
-0.412109	0.1649	0.888595
-0.404297	0.176618	0.880372
-0.373047	0.211775	0.89231
-0.373047	0.231306	0.892499
0.0761719	0.063337	0.81839
0.0761719	0.0672433	0.818543
0.0761719	0.0711495	0.818681
0.0761719	0.0750558	0.818754
0.0761719	0.078962	0.818667
0.0761719	0.0828683	0.818696
0.0761719	0.0867745	0.818742
0.0761719	0.0906808	0.818785
0.0761719	0.094587	0.81879
-0.220703	-0.0655692	0.841707
-0.00195312	-0.0265067	0.818389
-0.384766	0.207868	0.888373
-0.384766	0.231306	0.888448
-0.322266	-0.0186942	0.869119
-0.373047	-0.00306922	0.896451
-0.349609	-0.0108817	0.880477
-0.251953	-0.0499442	0.857376
-0.0449219	-0.0265067	0.802472
-0.388672	0.2274	0.884761
-0.412109	0.153181	0.892393
-0.357422	-0.0108817	0.884744
-0.427734	0.121931	0.896062
-0.427734	0.125837	0.896229
-0.388672	0.203962	0.896241
-0.345703	-0.0108817	0.892261
0.0800781	0.0555245	0.818844
0.0800781	0.0594308	0.818738
-0.251953	-0.0499442	0.861201
-0.224609	-0.0655692	0.845654
-0.337891	-0.014788	0.888574
-0.326172	-0.0186942	0.865218
0.0566406	0.0984933	0.841821
0.0566406	0.1024	0.842005
0.0566406	0.106306	0.842009
0.0566406	0.110212	0.842024
-0.369141	0.215681	0.892372
-0.408203	0.168806	0.88854
-0.380859	0.211775	0.888671
-0.322266	-0.0186942	0.876785
0.0839844	-0.061663	0.806882
0.0839844	-0.0577567	0.806799
0.0839844	-0.0538505	0.80672
0.0839844	-0.0499442	0.806669
0.0839844	0.0359933	0.806684
0.0839844	0.0398995	0.806745
0.0839844	0.0438058	0.806735
0.0839844	0.047712	0.806773
0.0839844	0.0516183	0.806762
-0.244141	-0.0538505	0.857188
-0.216797	-0.0694755	0.841763
-0.357422	-0.00697547	0.896424
-0.314453	-0.0226005	0.869073
-0.384766	0.211775	0.884592
-0.384766	0.207868	0.896296
-0.423828	0.129743	0.896012
-0.423828	0.13365	0.896056
-0.423828	0.137556	0.8961
-0.423828	0.141462	0.896374
-0.341797	-0.014788	0.872843
-0.408203	0.157087	0.89229
-0.244141	-0.0538505	0.861061
0.0605469	0.0555245	0.841952
0.0605469	0.0594308	0.841926
0.0605469	0.063337	0.841876
0.0605469	0.0672433	0.841864
0.0605469	0.0711495	0.841963
0.0605469	0.0750558	0.842191
0.0605469	0.078962	0.842249
0.0605469	0.0828683	0.842204
0.0605469	0.0867745	0.842199
0.0605469	0.0906808	0.842221
0.0605469	0.094587	0.842219
-0.365234	0.219587	0.892467
-0.365234	0.223493	0.892492
-0.365234	0.2274	0.892555
-0.333984	-0.014788	0.880679
-0.404297	0.172712	0.88831
-0.404297	0.176618	0.888634
-0.220703	-0.0694755	0.845699
-0.240234	-0.0577567	0.857316
-0.373047	0.2274	0.88853
-0.330078	-0.014788	0.892345
-0.310547	-0.0226005	0.864923
-0.337891	-0.014788	0.884492
0.0878906	-0.0694755	0.806212
0.0878906	-0.0655692	0.806214
0.0878906	-0.061663	0.806186
0.0878906	-0.0538505	0.806183
0.0878906	-0.0499442	0.806344
0.0878906	0.00864953	0.806665
0.0878906	0.0125558	0.806751
0.0878906	0.016462	0.806782
0.0878906	0.0203683	0.806725
0.0878906	0.0242745	0.806828
0.0878906	0.0281808	0.806874
0.0878906	0.032087	0.806937
-0.322266	-0.0186942	0.888296
-0.240234	-0.0577567	0.861142
-0.310547	-0.0226005	0.876917
-0.337891	-0.0108817	0.896218
-0.419922	0.145368	0.896224
-0.419922	0.149275	0.896416
-0.380859	0.219587	0.884658
-0.380859	0.223493	0.884753
0.0761719	-0.046038	0.810577
-0.404297	0.160993	0.89231
-0.369141	0.223493	0.88861
-0.298828	-0.0265067	0.868972
0.0683594	-0.0265067	0.822355
0.0683594	-0.0226005	0.822332
0.0683594	-0.0186942	0.822266
-0.318359	-0.0186942	0.880733
-0.416016	0.153181	0.896375
-0.326172	-0.0186942	0.872837
-0.322266	-0.0186942	0.884616
-0.322266	-0.014788	0.896243
-0.310547	-0.0226005	0.88857
-0.298828	-0.0265067	0.864961
0.0917969	-0.0694755	0.806677
0.0917969	-0.061663	0.806644
0.0917969	-0.0577567	0.806628
0.0917969	-0.0538505	0.806717
0.0917969	-0.0499442	0.806727
0.0917969	-0.046038	0.806725
0.0917969	-0.0421317	0.806843
0.0917969	-0.0382255	0.806859
0.0917969	-0.0343192	0.806833
0.0917969	-0.00697547	0.806764
0.0917969	-0.00306922	0.806864
0.0917969	0.000837028	0.806874
0.0917969	0.00474328	0.806983
0.0449219	0.207868	0.841852
0.0449219	0.211775	0.841865
0.0449219	0.215681	0.841906
-0.400391	0.1649	0.892421
-0.400391	0.168806	0.892397
-0.400391	0.172712	0.892315
-0.298828	-0.0265067	0.876611
0.0800781	-0.0538505	0.810645
0.0800781	-0.0499442	0.810595
0.0800781	-0.046038	0.810543
0.0800781	0.047712	0.810641
0.0800781	0.0516183	0.810588
-0.365234	0.215681	0.888328
-0.365234	0.219587	0.888437
-0.376953	0.215681	0.884504
-0.412109	0.157087	0.896406
0.0722656	-0.0538505	0.822563
0.0722656	-0.0499442	0.822501
0.0722656	-0.046038	0.822498
0.0722656	-0.0421317	0.822277
0.0722656	-0.0265067	0.821785
0.0722656	-0.0226005	0.821824
0.0722656	-0.0186942	0.822258
0.0722656	-0.0538505	0.814648
0.0722656	-0.0421317	0.814468
0.0683594	-0.0226005	0.81842
-0.0644531	-0.0265067	0.830114
-0.283203	-0.030413	0.868879
-0.306641	-0.0186942	0.892231
0.00195312	-0.0343192	0.802763
0.0449219	0.157087	0.849627
0.0449219	0.1649	0.849773
0.0449219	0.168806	0.849867
0.0449219	0.172712	0.849987
0.0449219	0.176618	0.849993
0.0488281	0.180525	0.842068
0.0488281	0.184431	0.84206
0.0488281	0.188337	0.842093
0.0488281	0.192243	0.842119
0.0488281	0.19615	0.842162
0.0488281	0.200056	0.842152
0.0488281	0.203962	0.842239
0.0488281	0.219587	0.842273
0.0488281	0.223493	0.842181
0.0488281	0.2274	0.842091
0.0488281	0.231306	0.842067
0.0957031	-0.0655692	0.807015
0.0957031	-0.0577567	0.806975
0.0957031	-0.030413	0.807122
0.0957031	-0.0265067	0.807128
0.0957031	-0.0226005	0.807126
0.0957031	-0.0186942	0.807128
0.0957031	-0.014788	0.807127
0.0957031	-0.0108817	0.807128
-0.306641	-0.0226005	0.880718
-0.306641	-0.0186942	0.896202
-0.310547	-0.0226005	0.884408
0.0839844	-0.0694755	0.810065
0.0839844	-0.061663	0.810846
0.0839844	-0.0577567	0.810726
0.0839844	-0.0538505	0.810063
0.0839844	-0.0499442	0.810059
0.0839844	-0.0343192	0.810578
0.0839844	0.016462	0.810571
0.0839844	0.0203683	0.810623
0.0839844	0.0242745	0.810633
0.0839844	0.0281808	0.810704
0.0839844	0.032087	0.810692
0.0839844	0.0359933	0.810795
0.0839844	0.0398995	0.810833
0.0839844	0.0438058	0.810817
-0.298828	-0.0265067	0.888527
0.0761719	-0.0577567	0.814688
0.0761719	-0.046038	0.814491
0.0761719	-0.0421317	0.814424
0.0761719	-0.0343192	0.814535
0.0410156	0.1649	0.853609
0.0410156	0.168806	0.853655
0.0410156	0.172712	0.853657
0.0410156	0.176618	0.853636
-0.287109	-0.030413	0.864971
-0.396484	0.176618	0.892332
0.0722656	-0.0538505	0.818571
0.0722656	-0.0499442	0.8185
0.0722656	-0.046038	0.818442
0.0722656	-0.0421317	0.818383
0.0722656	-0.030413	0.818438
0.0722656	-0.0226005	0.817889
-0.310547	-0.0226005	0.872812
0.0761719	-0.0694755	0.821892
0.0761719	-0.0655692	0.821883
0.0761719	-0.061663	0.821777
0.0761719	-0.0538505	0.821807
0.0761719	-0.0499442	0.821798
0.0761719	-0.046038	0.821813
0.0761719	-0.0421317	0.821779
0.0761719	0.032087	0.822313
0.0761719	0.0359933	0.822343
0.0761719	0.0398995	0.822405
0.0761719	0.0438058	0.822531
0.0761719	0.047712	0.822539
0.0761719	0.0516183	0.822455
-0.408203	0.168806	0.896461
0.00585938	-0.030413	0.802833
0.00585938	-0.0265067	0.802787
-0.0527344	-0.0343192	0.829992
-0.275391	-0.0343192	0.868773
-0.298828	-0.0226005	0.892185
-0.287109	-0.030413	0.876921
-0.298828	-0.0226005	0.896367
0.0488281	0.114118	0.849673
0.0488281	0.118025	0.849736
0.0488281	0.121931	0.849806
0.0488281	0.125837	0.849818
0.0488281	0.129743	0.849812
0.0488281	0.13365	0.84988
0.0488281	0.137556	0.849799
0.0488281	0.141462	0.849973
0.0488281	0.145368	0.850016
0.0488281	0.149275	0.850074
0.0488281	0.153181	0.849989
0.0488281	0.160993	0.849996
0.0878906	-0.0655692	0.810302
0.0878906	-0.061663	0.810286
0.0878906	-0.0577567	0.81013
0.0878906	-0.0343192	0.810156
0.0878906	-0.00697547	0.810613
0.0878906	-0.00306922	0.810915
0.0878906	0.000837028	0.81092
0.0878906	0.00474328	0.810959
0.0878906	0.00864953	0.810986
0.0878906	0.0125558	0.81098
0.0800781	-0.0694755	0.813977
0.0800781	-0.061663	0.813985
0.0800781	-0.046038	0.813977
0.0800781	-0.0343192	0.813977
0.0800781	0.032087	0.814496
0.0800781	0.0359933	0.814455
0.0800781	0.0398995	0.814481
0.0800781	0.0438058	0.814559
0.0800781	0.047712	0.814716
0.0800781	0.0516183	0.814707
-0.291016	-0.030413	0.888652
-0.294922	-0.0265067	0.880711
0.0449219	0.13365	0.85352
0.0449219	0.137556	0.853594
0.0449219	0.141462	0.853652
0.0449219	0.145368	0.853652
0.0449219	0.149275	0.853641
0.0449219	0.153181	0.853777
0.0449219	0.157087	0.853905
0.0449219	0.160993	0.853688
0.0761719	-0.0655692	0.817885
0.0761719	-0.061663	0.817916
0.0761719	-0.0577567	0.817874
0.0761719	-0.0421317	0.818349
0.0761719	-0.030413	0.817875
0.0761719	0.047712	0.81836
-0.298828	-0.0265067	0.884562
-0.279297	-0.0343192	0.865003
-0.404297	0.160993	0.896024
-0.404297	0.1649	0.896236
-0.404297	0.172712	0.896304
-0.404297	0.176618	0.896399
-0.271484	-0.0382255	0.868831
0.0800781	-0.0577567	0.821809
0.0800781	-0.0265067	0.822304
0.0800781	-0.014788	0.822317
0.0800781	-0.0108817	0.822349
0.0800781	-0.00697547	0.822397
0.0800781	-0.00306922	0.822373
0.0800781	0.000837028	0.822451
0.0800781	0.00474328	0.822512
0.0800781	0.00864953	0.822702
0.0800781	0.0125558	0.822708
0.0800781	0.016462	0.822742
0.0800781	0.0203683	0.822723
0.0800781	0.0242745	0.822723
0.0800781	0.0281808	0.82272
0.0917969	-0.0694755	0.810859
0.0917969	-0.0655692	0.81093
0.0917969	-0.061663	0.810836
0.0917969	-0.0577567	0.810751
0.0917969	-0.0538505	0.81084
0.0917969	-0.0499442	0.811003
0.0917969	-0.046038	0.810851
0.0917969	-0.0421317	0.811016
0.0917969	-0.0382255	0.811013
0.0917969	-0.0343192	0.811024
0.0917969	-0.030413	0.810977
0.0917969	-0.0265067	0.810954
0.0917969	-0.0226005	0.810983
0.0917969	-0.0186942	0.810955
0.0917969	-0.014788	0.810898
0.0917969	-0.0108817	0.811009
-0.287109	-0.0265067	0.896095
-0.291016	-0.0265067	0.892486
0.0839844	-0.0655692	0.813982
0.0839844	-0.0577567	0.813978
0.0839844	-0.0538505	0.814042
0.0839844	-0.014788	0.814465
0.0839844	-0.0108817	0.814487
0.0839844	-0.00697547	0.814524
0.0839844	-0.00306922	0.814482
0.0839844	0.000837028	0.8145
0.0839844	0.00474328	0.814542
0.0839844	0.00864953	0.814562
0.0839844	0.0125558	0.814548
0.0839844	0.016462	0.814659
0.0839844	0.0203683	0.814671
0.0839844	0.0242745	0.814721
0.0839844	0.0281808	0.814781
-0.0449219	-0.0421317	0.82988
-0.00195312	0.157087	0.857436
-0.00195312	0.160993	0.857525
-0.00195312	0.1649	0.857521
-0.00195312	0.168806	0.857496
-0.00195312	0.172712	0.8575
-0.00195312	0.176618	0.857602
0.0527344	0.094587	0.849655
0.0527344	0.0984933	0.849769
0.0527344	0.1024	0.849898
0.0527344	0.106306	0.8499
0.0527344	0.110212	0.849834
-0.298828	-0.0265067	0.872988
-0.279297	-0.0343192	0.87685
-0.0683594	-0.0265067	0.826214
-0.283203	-0.0343192	0.888609
0.0488281	0.0984933	0.853652
0.0488281	0.1024	0.853699
0.0488281	0.106306	0.853575
0.0488281	0.110212	0.853576
0.0488281	0.114118	0.853759
0.0488281	0.118025	0.853841
0.0488281	0.121931	0.853857
0.0488281	0.125837	0.853905
0.0488281	0.129743	0.853865
0.0800781	-0.0694755	0.817942
0.0800781	-0.0655692	0.818732
0.0800781	-0.0538505	0.817893
0.0800781	-0.0499442	0.817979
0.0800781	-0.046038	0.817976
0.0800781	0.000837028	0.818419
0.0800781	0.00474328	0.818426
0.0800781	0.00864953	0.818429
0.0800781	0.0125558	0.818515
0.0800781	0.016462	0.818546
0.0800781	0.0203683	0.818558
0.0800781	0.0242745	0.818522
0.0800781	0.0281808	0.818449
0.0800781	0.032087	0.818493
0.0800781	0.0359933	0.818565
0.0800781	0.0398995	0.818598
0.0800781	0.0438058	0.818589
0.0800781	0.0516183	0.818771
0.0566406	0.188337	0.826173
0.0566406	0.192243	0.826246
-0.287109	-0.030413	0.880812
-0.291016	-0.030413	0.884535
0.0839844	-0.0499442	0.822344
0.0839844	-0.046038	0.822559
0.0839844	-0.0421317	0.822639
0.0839844	-0.0382255	0.822698
0.0839844	-0.0343192	0.822697
0.0839844	-0.030413	0.822702
0.0839844	-0.0226005	0.822697
0.0839844	-0.0186942	0.822705
0.00195312	0.157087	0.857384
-0.00195312	0.149275	0.861402
-0.00195312	0.153181	0.861436
-0.00195312	0.160993	0.861441
-0.00195312	0.1649	0.861457
-0.00195312	0.168806	0.861515
-0.00195312	0.172712	0.861572
-0.00195312	0.176618	0.861767
-0.279297	-0.030413	0.896227
-0.283203	-0.030413	0.89223
0.0878906	-0.046038	0.814505
0.0878906	-0.0421317	0.814516
0.0878906	-0.0382255	0.814531
0.0878906	-0.030413	0.814459
0.0878906	-0.0265067	0.814537
0.0878906	-0.0226005	0.814466
0.0878906	-0.0186942	0.814611
0.0566406	0.0555245	0.849794
0.0566406	0.0594308	0.849798
0.0566406	0.063337	0.849691
0.0566406	0.0672433	0.849827
0.0566406	0.0711495	0.849887
0.0566406	0.0750558	0.849906
0.0566406	0.078962	0.849989
0.0566406	0.0828683	0.850015
0.0566406	0.0867745	0.850071
0.0566406	0.0906808	0.850082
-0.263672	-0.046038	0.869052
-0.263672	-0.0421317	0.868848
-0.271484	-0.0382255	0.864927
0.0839844	-0.0655692	0.818047
0.0839844	-0.014788	0.818417
0.0839844	-0.0108817	0.818557
0.0839844	-0.00697547	0.81858
0.0839844	-0.00306922	0.818651
-0.0371094	-0.0382255	0.829728
0.00585938	0.160993	0.856948
0.00585938	0.1649	0.857049
0.00195312	0.149275	0.861228
0.00195312	0.157087	0.861508
0.0527344	0.0672433	0.853623
0.0527344	0.0711495	0.853623
0.0527344	0.0750558	0.853724
0.0527344	0.078962	0.853736
0.0527344	0.0828683	0.853612
0.0527344	0.0867745	0.853809
0.0527344	0.0906808	0.853823
0.0527344	0.094587	0.853922
-0.291016	-0.030413	0.873025
0.0605469	0.180525	0.826389
0.0605469	0.184431	0.826547
0.0605469	0.19615	0.826603
0.0605469	0.200056	0.826613
0.0605469	0.203962	0.826555
0.0605469	0.207868	0.826534
0.0605469	0.211775	0.8264
0.0605469	0.215681	0.826408
0.0605469	0.219587	0.8264
0.0605469	0.223493	0.826504
0.0605469	0.2274	0.826639
0.0878906	-0.0694755	0.822694
0.0878906	-0.0655692	0.822691
0.0878906	-0.061663	0.822721
0.0878906	-0.0577567	0.822702
0.0878906	-0.0538505	0.822738
-0.275391	-0.0382255	0.888604
-0.271484	-0.0382255	0.876576
-0.275391	-0.0343192	0.896292
-0.275391	-0.0343192	0.880624
-0.283203	-0.0343192	0.884458
0.0917969	-0.0694755	0.814935
0.0917969	-0.0655692	0.814938
0.0917969	-0.061663	0.814941
0.0917969	-0.0577567	0.814937
0.0917969	-0.0538505	0.81494
0.0917969	-0.0499442	0.814935
0.0917969	-0.0343192	0.814935
-0.0449219	-0.0382255	0.837726
-0.275391	-0.0343192	0.892204
-0.0488281	-0.0421317	0.825892
-0.0488281	-0.0343192	0.826054
-0.0488281	-0.030413	0.826164
-0.0488281	-0.0265067	0.82613
0.00585938	0.153181	0.860958
0.00585938	0.157087	0.860956
0.00585938	0.160993	0.861049
0.00976562	0.168806	0.856944
0.00976562	0.172712	0.856935
0.00976562	0.176618	0.857335
0.0878906	-0.0694755	0.818536
0.0878906	-0.0655692	0.818542
0.0878906	-0.061663	0.81851
0.0878906	-0.0577567	0.818421
0.0878906	-0.0538505	0.818667
0.0878906	-0.0499442	0.818532
0.0878906	-0.046038	0.818729
0.0878906	-0.0421317	0.818772
0.0878906	-0.0382255	0.818782
0.0878906	-0.0343192	0.818782
0.0878906	-0.030413	0.818748
0.0878906	-0.0265067	0.818768
0.0878906	-0.0226005	0.818758
0.0878906	-0.0186942	0.818788
-0.267578	-0.0421317	0.864929
-0.267578	-0.0421317	0.888448
-0.271484	-0.0382255	0.880854
-0.267578	-0.0382255	0.89612
0.0566406	0.0555245	0.853902
0.0566406	0.0594308	0.853977
0.0566406	0.063337	0.853937
-0.279297	-0.0382255	0.884682
-0.279297	-0.0343192	0.872889
-0.271484	-0.0382255	0.892493
-0.251953	-0.0538505	0.869104
-0.251953	-0.0499442	0.868807
0.0527344	0.137556	0.837894
0.0527344	0.141462	0.838047
0.0527344	0.145368	0.837974
0.0527344	0.153181	0.83795
0.0527344	0.157087	0.838028
0.0527344	0.160993	0.83806
0.0527344	0.1649	0.838118
0.0527344	0.168806	0.838059
0.0527344	0.172712	0.838093
0.0527344	0.176618	0.838125
-0.263672	-0.0421317	0.876643
-0.0527344	-0.0343192	0.833909
0.00976562	0.1649	0.860904
0.00976562	0.168806	0.8609
0.00976562	0.172712	0.861183
-0.0253906	-0.0421317	0.830505
-0.0253906	-0.0382255	0.830373
-0.0410156	-0.0382255	0.837924
0.0175781	0.160993	0.857447
0.0175781	0.1649	0.857459
0.0175781	0.168806	0.857483
0.0175781	0.172712	0.857442
-0.0449219	-0.0382255	0.826171
-0.263672	-0.046038	0.888629
-0.259766	-0.046038	0.865226
-0.267578	-0.0421317	0.880781
0.0566406	0.13365	0.834039
0.0566406	0.137556	0.834021
0.0566406	0.141462	0.834057
0.0566406	0.145368	0.834166
0.0566406	0.149275	0.834217
0.0566406	0.153181	0.834151
0.0566406	0.157087	0.834135
0.0566406	0.160993	0.83418
0.0566406	0.1649	0.834306
0.0566406	0.168806	0.834238
0.0566406	0.172712	0.834326
0.0566406	0.176618	0.834201
-0.263672	-0.0421317	0.896077
-0.267578	-0.0421317	0.892559
0.0136719	0.176618	0.861174
-0.275391	-0.0382255	0.872974
0.0566406	0.106306	0.837992
0.0566406	0.110212	0.837922
0.0566406	0.114118	0.837985
0.0566406	0.118025	0.838079
0.0566406	0.121931	0.838049
0.0566406	0.125837	0.838069
0.0566406	0.129743	0.838078
0.0566406	0.13365	0.838075
0.0566406	0.149275	0.838367
-0.271484	-0.0421317	0.884731
0.0214844	0.160993	0.857305
0.0214844	0.176618	0.857469
-0.259766	-0.046038	0.876691
-0.0332031	-0.0382255	0.837834
-0.244141	-0.0577567	0.868973
0.0566406	0.172712	0.830112
0.0566406	0.176618	0.830122
-0.255859	-0.0499442	0.888246
-0.0449219	-0.0421317	0.833927
-0.0449219	-0.0382255	0.833755
0.0605469	0.0984933	0.834038
0.0605469	0.1024	0.834051
0.0605469	0.106306	0.834122
0.0605469	0.110212	0.834143
0.0605469	0.114118	0.834239
0.0605469	0.118025	0.834294
0.0605469	0.121931	0.834303
0.0605469	0.125837	0.834446
0.0605469	0.129743	0.834443
0.0527344	0.207868	0.830087
0.00195312	0.180525	0.853571
0.00195312	0.184431	0.853526
-0.259766	-0.0499442	0.892466
-0.259766	-0.046038	0.892178
-0.263672	-0.046038	0.880817
0.0175781	0.145368	0.861355
0.0175781	0.149275	0.861466
0.0175781	0.153181	0.861417
0.0175781	0.157087	0.861589
0.0175781	0.160993	0.861637
0.0175781	0.1649	0.861688
0.0175781	0.168806	0.861549
0.0175781	0.172712	0.861665
0.0175781	0.176618	0.861549
-0.251953	-0.0499442	0.865061
0.0253906	0.1649	0.856937
0.0253906	0.168806	0.857023
0.0253906	0.172712	0.857041
0.0253906	0.176618	0.857055
0.0605469	0.0750558	0.837964
0.0605469	0.078962	0.838118
0.0605469	0.0828683	0.837921
0.0605469	0.0867745	0.838044
0.0605469	0.0906808	0.838028
0.0605469	0.094587	0.83805
0.0605469	0.0984933	0.838092
0.0605469	0.1024	0.838249
-0.0410156	-0.0421317	0.83402
-0.251953	-0.0577567	0.88839
-0.0253906	-0.0382255	0.837911
0.0566406	0.184431	0.830195
0.0566406	0.188337	0.830248
0.0566406	0.192243	0.830272
0.0566406	0.19615	0.830465
0.0566406	0.200056	0.830442
0.0566406	0.203962	0.830385
0.0566406	0.211775	0.830356
0.0566406	0.215681	0.830386
0.0566406	0.219587	0.83025
0.0566406	0.223493	0.830293
0.0566406	0.2274	0.830403
-0.0332031	-0.0421317	0.826558
-0.255859	-0.0499442	0.87694
-0.263672	-0.046038	0.884492
-0.00976562	-0.0382255	0.83004
-0.263672	-0.0421317	0.872929
0.0644531	0.0672433	0.833998
0.0644531	0.0711495	0.834144
0.0644531	0.0750558	0.83413
0.0644531	0.078962	0.834297
0.0644531	0.0828683	0.834385
0.0644531	0.0867745	0.83435
0.0644531	0.0906808	0.834331
0.0644531	0.094587	0.834359
-0.259766	-0.0499442	0.88083
0.0214844	0.145368	0.861033
0.0214844	0.149275	0.861186
0.0214844	0.153181	0.861134
0.0214844	0.157087	0.861312
0.0605469	0.118025	0.830093
0.0605469	0.121931	0.830093
0.0605469	0.125837	0.830264
0.0605469	0.129743	0.830199
0.0605469	0.13365	0.830299
0.0605469	0.137556	0.830259
0.0605469	0.141462	0.830432
0.0605469	0.145368	0.830413
0.0605469	0.149275	0.830434
0.0605469	0.153181	0.830482
0.0605469	0.157087	0.830464
0.0605469	0.160993	0.830463
0.0605469	0.1649	0.830422
0.0605469	0.168806	0.8304
-0.248047	-0.0538505	0.865109
0.00585938	0.180525	0.853356
0.00585938	0.188337	0.853542
0.00585938	0.19615	0.853519
0.0371094	0.149275	0.857458
0.0371094	0.153181	0.857487
0.0371094	0.157087	0.857449
0.0371094	0.160993	0.857514
0.0371094	0.1649	0.857467
0.0371094	0.168806	0.857533
0.0371094	0.172712	0.857653
0.0371094	0.176618	0.857619
0.0644531	0.0555245	0.838103
0.0644531	0.0594308	0.838203
0.0644531	0.063337	0.838306
0.0644531	0.0672433	0.838242
0.0644531	0.0711495	0.838206
-0.0371094	-0.0421317	0.83394
0.0253906	0.160993	0.860935
0.0253906	0.1649	0.861114
0.0253906	0.168806	0.86119
0.0253906	0.172712	0.861297
0.0605469	0.180525	0.830511
-0.251953	-0.0538505	0.876855
-0.00585938	-0.0382255	0.830088
-0.259766	-0.0499442	0.884508
0.0839844	-0.061663	0.802947
0.0839844	-0.0577567	0.802871
0.0839844	-0.0538505	0.802779
-0.0292969	-0.0382255	0.826236
0.0644531	0.0828683	0.830079
0.0644531	0.0984933	0.830263
0.0644531	0.1024	0.830278
0.0644531	0.106306	0.830321
0.0644531	0.110212	0.830365
0.0644531	0.114118	0.830417
-0.251953	-0.0538505	0.880628
0.0683594	0.0555245	0.83434
0.0683594	0.0594308	0.834432
0.0683594	0.063337	0.83445
0.0527344	-0.0421317	0.853188
0.0410156	0.121931	0.857427
0.0410156	0.129743	0.857465
0.0410156	0.13365	0.85748
0.0410156	0.137556	0.857488
0.0410156	0.141462	0.857507
0.0410156	0.145368	0.857584
-0.259766	-0.046038	0.87296
0.00976562	0.184431	0.853258
0.00976562	0.188337	0.853185
-0.244141	-0.0577567	0.865208
0.0292969	0.176618	0.860869
0.0605469	0.153181	0.826187
0.0605469	0.168806	0.826189
0.0605469	0.172712	0.826232
0.0605469	0.176618	0.8263
0.0410156	0.184431	0.849614
0.0410156	0.188337	0.849643
0.0410156	0.192243	0.849667
0.0410156	0.19615	0.84965
0.0410156	0.200056	0.849655
0.0410156	0.203962	0.849663
0.0410156	0.207868	0.849695
0.0410156	0.211775	0.849701
0.0410156	0.215681	0.849731
0.0410156	0.219587	0.849625
-0.0253906	-0.0382255	0.826128
0.0566406	-0.0421317	0.849135
0.0566406	-0.030413	0.849883
0.0566406	-0.0265067	0.849867
0.0566406	-0.0226005	0.849856
0.0566406	0.0438058	0.849615
0.0566406	0.047712	0.849653
0.0566406	0.0516183	0.849732
-0.0253906	-0.0421317	0.834423
-0.0253906	-0.0382255	0.834283
-0.00195312	-0.0382255	0.830071
0.0449219	0.0984933	0.857444
0.0449219	0.1024	0.857449
0.0449219	0.106306	0.857459
0.0449219	0.110212	0.857451
0.0449219	0.114118	0.857477
0.0449219	0.118025	0.857739
0.0449219	0.125837	0.857691
-0.251953	-0.0538505	0.88436
-0.248047	-0.0577567	0.880821
0.0566406	0.0242745	0.853573
0.0566406	0.0438058	0.853572
0.0566406	0.047712	0.853734
0.0566406	0.0516183	0.853825
0.0683594	0.0555245	0.830204
0.0683594	0.0594308	0.830208
0.0683594	0.063337	0.830244
0.0683594	0.0672433	0.830218
0.0683594	0.0711495	0.830303
0.0683594	0.0750558	0.830312
0.0683594	0.078962	0.830318
0.0683594	0.0867745	0.830448
0.0683594	0.0906808	0.830543
0.0683594	0.094587	0.830564
0.0371094	0.145368	0.861393
0.0371094	0.149275	0.861516
0.0371094	0.153181	0.861607
0.0371094	0.157087	0.861656
0.0371094	0.160993	0.861668
0.0371094	0.1649	0.861672
0.0371094	0.168806	0.861596
0.0371094	0.172712	0.861695
0.0371094	0.176618	0.861714
0.0878906	0.0281808	0.802775
0.0878906	0.032087	0.802785
0.0878906	0.0359933	0.802774
0.0878906	0.0398995	0.802857
0.0878906	0.0438058	0.802888
0.0878906	0.047712	0.802941
0.0878906	0.0516183	0.80288
0.0136719	0.19615	0.853071
-0.255859	-0.0499442	0.872997
0.0488281	0.0672433	0.857433
0.0488281	0.0711495	0.857579
0.0488281	0.0750558	0.857635
0.0488281	0.078962	0.857607
0.0488281	0.0828683	0.857708
0.0488281	0.0867745	0.857719
0.0488281	0.0906808	0.857638
0.0488281	0.094587	0.857819
0.0644531	0.118025	0.826283
0.0644531	0.121931	0.826385
0.0644531	0.125837	0.826281
0.0644531	0.129743	0.826392
0.0644531	0.13365	0.826416
0.0644531	0.137556	0.826479
0.0644531	0.141462	0.826483
0.0644531	0.145368	0.826387
0.0644531	0.149275	0.826429
0.0644531	0.157087	0.826643
0.0644531	0.160993	0.826546
0.0644531	0.1649	0.826652
0.0449219	0.180525	0.850008
0.0449219	0.223493	0.850033
0.0449219	0.2274	0.850038
0.0449219	0.231306	0.850034
0.0449219	0.235212	0.850066
-0.248047	-0.0577567	0.884469
0.0410156	0.110212	0.86138
0.0410156	0.114118	0.861563
0.0410156	0.118025	0.861495
0.0410156	0.121931	0.861503
0.0410156	0.125837	0.861464
0.0410156	0.129743	0.861494
0.0410156	0.13365	0.861479
0.0410156	0.137556	0.861737
0.0410156	0.141462	0.861757
-0.0175781	-0.0382255	0.826175
0.0605469	-0.0499442	0.849466
0.0605469	-0.046038	0.849221
0.0605469	-0.030413	0.849139
0.0605469	-0.0265067	0.849209
0.0605469	-0.0226005	0.849196
0.0605469	0.016462	0.849779
0.0605469	0.0203683	0.849783
0.0605469	0.0242745	0.849751
0.0605469	0.0281808	0.849856
0.0605469	0.032087	0.849944
0.0605469	0.0359933	0.849961
0.0605469	0.0398995	0.849907
0.00195312	-0.0382255	0.830097
0.0527344	0.0555245	0.857753
0.0527344	0.0594308	0.857814
0.0527344	0.063337	0.857857
0.0917969	-0.0694755	0.802446
0.0917969	-0.0655692	0.802362
0.0917969	-0.061663	0.802472
0.0917969	-0.0577567	0.80243
0.0917969	-0.0538505	0.802462
0.0917969	-0.0421317	0.802757
0.0917969	-0.0382255	0.802792
0.0917969	-0.0343192	0.802764
0.0917969	-0.030413	0.80283
0.0917969	-0.0265067	0.802784
0.0917969	-0.0226005	0.80279
0.0917969	-0.0186942	0.802767
0.0917969	-0.014788	0.802766
0.0917969	-0.0108817	0.802736
0.0917969	-0.00697547	0.802821
0.0917969	-0.00306922	0.802784
0.0917969	0.000837028	0.802773
0.0917969	0.0125558	0.802791
0.0917969	0.016462	0.80282
0.0917969	0.0203683	0.802909
0.0917969	0.0242745	0.802918
0.0605469	-0.046038	0.853341
0.0605469	-0.00697547	0.853594
0.0605469	-0.00306922	0.853631
0.0605469	0.000837028	0.85363
0.0605469	0.00474328	0.853799
0.0605469	0.00864953	0.853856
0.0605469	0.0125558	0.853791
0.0605469	0.016462	0.853946
0.0605469	0.0203683	0.85396
0.0605469	0.0281808	0.853956
0.0605469	0.032087	0.853978
0.0605469	0.0359933	0.853989
0.0605469	0.0398995	0.853984
-0.251953	-0.0538505	0.872979
0.0449219	0.0906808	0.861356
0.0449219	0.094587	0.861433
0.0449219	0.0984933	0.861503
0.0449219	0.1024	0.861609
0.0449219	0.106306	0.861667
0.0683594	0.0750558	0.826174
0.0683594	0.078962	0.826216
0.0683594	0.0828683	0.826258
0.0683594	0.0867745	0.826329
0.0683594	0.0906808	0.826345
0.0683594	0.094587	0.826432
0.0683594	0.0984933	0.82643
0.0683594	0.1024	0.826413
0.0683594	0.106306	0.826547
0.0683594	0.110212	0.826517
0.0683594	0.114118	0.82647
-0.00195312	-0.0382255	0.841787
0.0644531	-0.0499442	0.849872
0.0644531	-0.030413	0.849691
0.0644531	-0.0265067	0.849648
0.0644531	-0.0226005	0.849677
0.0644531	-0.0186942	0.849768
0.0644531	-0.014788	0.84995
0.0644531	-0.0108817	0.849825
0.0644531	-0.00697547	0.849996
0.0644531	-0.00306922	0.849907
0.0644531	0.000837028	0.850076
0.0644531	0.00474328	0.84993
0.0644531	0.00864953	0.849962
0.0644531	0.0125558	0.849979
0.00585938	-0.0382255	0.830074
-0.0136719	-0.0382255	0.826148
0.0957031	-0.0694755	0.802913
0.0957031	-0.0655692	0.802782
0.0957031	-0.061663	0.802748
0.0957031	-0.0538505	0.802876
0.0957031	-0.0499442	0.802941
0.0957031	-0.046038	0.802933
0.0957031	0.00474328	0.803203
0.0957031	0.00864953	0.803195
0.0488281	0.0555245	0.861578
0.0488281	0.0594308	0.861632
0.0488281	0.063337	0.861657
0.0488281	0.0672433	0.861626
0.0488281	0.0711495	0.861623
0.0488281	0.0750558	0.861671
0.0488281	0.078962	0.861627
0.0488281	0.0828683	0.861797
0.0488281	0.0867745	0.861801
0.0644531	-0.046038	0.853866
0.0644531	-0.0421317	0.853735
0.0644531	-0.0382255	0.853611
0.0644531	-0.0343192	0.853622
0.0644531	-0.030413	0.853664
0.0644531	-0.0265067	0.853768
0.0644531	-0.0226005	0.853855
0.0644531	-0.0186942	0.853874
0.0644531	-0.014788	0.853901
0.0644531	-0.0108817	0.853981
0.0722656	0.0555245	0.826258
0.0722656	0.0594308	0.826374
0.0722656	0.063337	0.82644
0.0722656	0.0672433	0.826467
0.0722656	0.0711495	0.826549
0.0371094	0.207868	0.853639
0.0371094	0.211775	0.853654
0.0371094	0.215681	0.853657
0.0371094	0.219587	0.853645
-0.00195312	0.180525	0.865696
-0.00195312	0.184431	0.865466
-0.00195312	0.180525	0.869444
-0.00195312	0.184431	0.869395
0.0683594	-0.046038	0.85006
0.0683594	-0.0421317	0.850059
0.0683594	-0.0382255	0.850054
0.0683594	-0.0343192	0.850067
0.00976562	-0.0382255	0.830142
-0.00195312	0.180525	0.861516
-0.244141	-0.0577567	0.872919
-0.00585938	-0.0382255	0.826188
0.00585938	-0.0382255	0.845704
0.00976562	-0.0382255	0.841917
0.0996094	-0.0577567	0.803221
0.0566406	-0.0343192	0.838153
0.0566406	-0.030413	0.838129
0.0566406	-0.0265067	0.838026
0.0488281	-0.0343192	0.860861
0.0488281	0.0516183	0.861375
0.0410156	0.180525	0.853609
0.0410156	0.184431	0.853707
0.0410156	0.188337	0.853821
0.0410156	0.192243	0.853819
0.0410156	0.19615	0.853942
0.0410156	0.200056	0.853932
0.0410156	0.203962	0.853853
0.0410156	0.223493	0.85389
0.0410156	0.2274	0.853777
0.0410156	0.231306	0.853824
0.0410156	0.235212	0.853822
0.00195312	0.192243	0.869205
0.0527344	-0.0421317	0.857401
0.0527344	-0.0382255	0.857063
0.0527344	0.0398995	0.857547
0.0527344	0.0438058	0.857549
0.0527344	0.047712	0.857669
0.0527344	0.0516183	0.85763
0.00195312	0.188337	0.865722
0.00195312	0.192243	0.865397
0.00195312	0.180525	0.857877
0.00195312	0.184431	0.857752
0.00195312	0.188337	0.857569
0.00195312	0.192243	0.857428
0.00195312	0.184431	0.8618
0.00195312	0.188337	0.861625
0.0527344	-0.0382255	0.861242
0.0527344	-0.00697547	0.861441
0.0527344	-0.00306922	0.861419
0.0527344	0.000837028	0.861419
0.0527344	0.00474328	0.861347
0.0527344	0.00864953	0.861363
0.0527344	0.0125558	0.861441
0.0527344	0.016462	0.861433
0.0527344	0.0203683	0.861426
0.0527344	0.0242745	0.861423
0.0527344	0.0281808	0.861513
0.0527344	0.032087	0.861767
0.0527344	0.0359933	0.861779
0.0527344	0.0398995	0.861762
0.0527344	0.0438058	0.861674
0.0527344	0.047712	0.861754
0.0605469	-0.0226005	0.838064
0.0605469	-0.0186942	0.838038
0.00585938	0.19615	0.857843
0.00585938	0.200056	0.857578
0.00585938	0.188337	0.869621
0.00585938	0.19615	0.869606
0.00585938	0.200056	0.869628
0.00585938	0.203962	0.869465
0.00585938	0.207868	0.869274
0.00585938	-0.0382255	0.826161
0.00585938	0.192243	0.861805
0.00585938	0.19615	0.861751
0.00585938	0.200056	0.86173
0.00585938	0.203962	0.86163
0.0566406	0.000837028	0.857477
0.0566406	0.00474328	0.857467
0.0566406	0.00864953	0.857535
0.0566406	0.0125558	0.857656
0.0566406	0.016462	0.857663
0.0566406	0.0203683	0.857743
0.0566406	0.0242745	0.857897
0.0566406	0.0281808	0.857878
0.0566406	0.032087	0.857852
0.0566406	0.0359933	0.857877
0.00585938	0.19615	0.865685
0.00585938	0.200056	0.865668
0.00585938	0.203962	0.86542
0.00585938	0.207868	0.865386
0.0644531	-0.0577567	0.837414
0.0644531	-0.0499442	0.837445
0.0644531	-0.0343192	0.837411
0.0644531	-0.030413	0.837436
0.0644531	-0.0265067	0.837428
0.0644531	0.047712	0.837993
0.0644531	0.0516183	0.83797
-0.00976562	0.0594308	0.884816
-0.00976562	0.063337	0.884805
-0.00976562	0.0672433	0.885098
-0.00976562	0.0711495	0.885064
-0.00976562	0.0750558	0.884931
-0.00976562	0.078962	0.885124
-0.00976562	0.0828683	0.885058
-0.00976562	0.0867745	0.884959
-0.00976562	0.0906808	0.884975
-0.00976562	0.094587	0.88512
-0.00976562	0.0984933	0.884788
-0.00976562	0.1024	0.884928
-0.00976562	0.106306	0.885155
-0.00976562	0.110212	0.88509
-0.00976562	0.114118	0.885191
-0.00976562	0.118025	0.885137
-0.00976562	0.121931	0.885146
-0.00976562	0.125837	0.885147
-0.00976562	0.129743	0.885136
-0.00976562	0.13365	0.884967
0.0566406	-0.0382255	0.861801
0.0566406	-0.0343192	0.861387
0.0566406	-0.0226005	0.861334
0.0566406	-0.0186942	0.861372
0.0566406	-0.014788	0.861441
0.0566406	-0.0108817	0.861551
0.0527344	0.180525	0.834009
0.0527344	0.184431	0.83404
0.0527344	0.188337	0.834109
0.0527344	0.192243	0.834127
0.0527344	0.19615	0.834164
0.0527344	0.200056	0.834228
0.0527344	0.203962	0.83422
0.0527344	0.207868	0.83426
0.0527344	0.211775	0.834296
0.0527344	0.215681	0.834197
0.0527344	0.219587	0.834196
0.0527344	0.223493	0.834063
0.0527344	0.2274	0.834047
0.0527344	0.231306	0.834118
0.00976562	0.203962	0.857619
0.00976562	0.207868	0.857518
0.00976562	0.211775	0.857433
0.0566406	-0.046038	0.833897
0.0566406	-0.0421317	0.833585
0.0566406	-0.0343192	0.834248
0.0566406	-0.030413	0.834192
0.00976562	0.207868	0.861728
0.00976562	0.211775	0.861557
0.00976562	0.215681	0.861384
0.00976562	0.211775	0.869627
0.00976562	0.215681	0.869476
0.0605469	-0.0421317	0.857757
0.0605469	-0.0382255	0.857641
0.0605469	-0.0343192	0.857484
0.0605469	-0.0265067	0.857502
0.0605469	-0.0226005	0.857723
0.0605469	-0.0186942	0.857637
0.0605469	-0.014788	0.857741
0.0605469	-0.0108817	0.85786
0.0605469	-0.00697547	0.857888
0.0605469	-0.00306922	0.857875
-0.0136719	0.0555245	0.880901
-0.0136719	0.0711495	0.880865
-0.0136719	0.0750558	0.880924
-0.0136719	0.125837	0.880914
0.00976562	-0.0382255	0.826232
-0.00585938	0.0594308	0.88465
-0.00585938	0.137556	0.885242
-0.00585938	0.141462	0.885254
-0.00585938	0.145368	0.885254
-0.00585938	0.149275	0.885247
-0.00585938	0.153181	0.885166
0.0605469	-0.030413	0.861781
0.0605469	-0.0265067	0.861782
0.0136719	0.180525	0.857086
0.0136719	0.184431	0.857338
0.0136719	0.215681	0.857587
0.0136719	0.219587	0.85751
0.00976562	0.211775	0.865693
0.00976562	0.215681	0.865415
0.00976562	0.219587	0.865294
0.0566406	-0.046038	0.829921
0.0566406	-0.0421317	0.829592
0.0566406	-0.0343192	0.830327
-0.00976562	0.0594308	0.881222
-0.00976562	0.063337	0.881261
-0.00976562	0.0672433	0.881286
-0.00976562	0.078962	0.881327
-0.00976562	0.0828683	0.881273
-0.00976562	0.0867745	0.881103
-0.00976562	0.0906808	0.881105
-0.00976562	0.094587	0.881022
-0.00976562	0.0984933	0.88102
-0.00976562	0.1024	0.881161
-0.00976562	0.106306	0.881223
-0.00976562	0.110212	0.881183
-0.00976562	0.114118	0.881275
-0.00976562	0.118025	0.881149
-0.00976562	0.121931	0.88123
-0.00976562	0.129743	0.881346
-0.00976562	0.13365	0.881167
-0.00976562	0.137556	0.881158
-0.00976562	0.141462	0.880997
0.0136719	0.180525	0.861325
0.0136719	0.219587	0.861521
0.0136719	0.223493	0.861479
0.0605469	-0.030413	0.833497
0.0644531	-0.030413	0.857881
0.0683594	-0.061663	0.837404
0.0683594	-0.0538505	0.837546
0.0683594	-0.0226005	0.837439
0.0683594	-0.0186942	0.837457
0.0683594	0.0125558	0.837902
0.0683594	0.016462	0.837912
0.0683594	0.0203683	0.838026
0.0683594	0.0242745	0.838108
0.0683594	0.0281808	0.838146
0.0683594	0.032087	0.83807
0.0683594	0.0359933	0.838149
0.0683594	0.0398995	0.83805
0.0683594	0.0438058	0.838166
0.0136719	0.219587	0.869583
0.0136719	0.223493	0.869607
0.0136719	0.2274	0.869562
0.0136719	0.231306	0.869435
0.0488281	0.200056	0.837961
0.0488281	0.203962	0.837943
0.0488281	0.207868	0.838079
0.0488281	0.211775	0.838088
0.0488281	0.215681	0.838086
-0.00195312	0.063337	0.884477
-0.00195312	0.0672433	0.88461
-0.00195312	0.0711495	0.884646
-0.00195312	0.0750558	0.884693
-0.00195312	0.157087	0.885254
-0.00195312	0.160993	0.885254
-0.00195312	0.1649	0.885245
-0.00195312	0.168806	0.885216
-0.00195312	0.172712	0.885014
0.0175781	0.180525	0.861493
-0.0292969	-0.0382255	0.896622
-0.0292969	-0.030413	0.896517
-0.0292969	-0.0265067	0.896649
-0.0292969	-0.0186942	0.896525
-0.00585938	0.145368	0.881327
-0.00585938	0.149275	0.881346
-0.00585938	0.153181	0.881291
-0.00585938	0.157087	0.881132
0.0566406	-0.0421317	0.84523
0.0566406	-0.0343192	0.846015
0.0566406	-0.030413	0.845962
0.0566406	-0.0265067	0.845938
0.0566406	-0.0226005	0.845914
0.0566406	-0.0186942	0.845896
0.0214844	0.184431	0.857434
0.0566406	-0.0343192	0.842075
0.0566406	-0.030413	0.842017
0.0566406	-0.0265067	0.842025
0.0136719	0.223493	0.865609
0.0136719	0.2274	0.865307
0.0605469	-0.0421317	0.830275
0.0644531	-0.046038	0.834255
0.0644531	-0.0421317	0.83426
0.0644531	-0.0343192	0.833764
0.0644531	-0.0265067	0.834142
0.0644531	-0.0226005	0.83411
0.0644531	-0.0186942	0.83407
0.00195312	0.078962	0.884373
0.00195312	0.0828683	0.884567
0.00195312	0.176618	0.885254
0.0722656	-0.061663	0.838112
0.0722656	-0.0577567	0.838004
0.0722656	-0.0538505	0.837912
0.0722656	-0.0499442	0.837971
0.0722656	-0.046038	0.837976
0.0722656	-0.0421317	0.837944
0.0722656	-0.0382255	0.838045
0.0722656	-0.0343192	0.838076
0.0722656	-0.030413	0.838266
0.0722656	-0.0265067	0.838339
0.0722656	-0.0226005	0.83809
0.0722656	-0.0186942	0.838027
0.0722656	-0.014788	0.838052
0.0722656	-0.0108817	0.837961
0.0722656	-0.00697547	0.838045
0.0722656	-0.00306922	0.838049
0.0722656	0.000837028	0.838231
0.0722656	0.00474328	0.838212
0.0722656	0.00864953	0.838151
0.0527344	0.180525	0.838171
0.0527344	0.184431	0.838177
0.0527344	0.188337	0.83818
0.0527344	0.192243	0.838172
0.0527344	0.19615	0.838172
0.0527344	0.219587	0.838274
0.0527344	0.223493	0.838322
0.0527344	0.2274	0.838292
0.0527344	0.231306	0.838356
-0.0253906	-0.0226005	0.89685
-0.0253906	-0.014788	0.896834
-0.0253906	-0.0108817	0.896808
-0.00585938	0.157087	0.865254
-0.00585938	0.172712	0.865263
0.0175781	0.235212	0.869543
0.0175781	0.239118	0.869275
-0.00195312	0.0555245	0.880373
-0.00195312	0.0594308	0.880406
-0.00195312	0.063337	0.880416
-0.00195312	0.0672433	0.880741
-0.00195312	0.0711495	0.880797
-0.00195312	0.160993	0.881348
-0.00195312	0.1649	0.881339
-0.00195312	0.168806	0.881136
-0.00195312	0.172712	0.881043
0.0253906	0.184431	0.857204
0.0253906	0.188337	0.857273
0.0253906	0.192243	0.857281
0.0253906	0.215681	0.857393
0.0253906	0.219587	0.857374
-0.0253906	0.203962	0.892808
-0.0253906	0.207868	0.892724
-0.0253906	0.211775	0.8926
-0.0253906	0.215681	0.89261
0.0175781	0.231306	0.865479
0.0292969	0.180525	0.860874
0.0292969	0.184431	0.861154
0.0292969	0.188337	0.861271
0.0644531	-0.046038	0.830266
0.0644531	-0.0421317	0.829923
0.0644531	-0.0343192	0.829854
0.0644531	-0.0226005	0.830191
0.0605469	-0.0421317	0.842112
0.0605469	-0.0382255	0.842091
0.0605469	-0.0226005	0.841974
0.0605469	-0.0186942	0.841955
-0.00195312	0.180525	0.873324
0.00585938	0.0867745	0.884406
0.00585938	0.0906808	0.884453
0.00585938	0.094587	0.884699
0.0683594	-0.061663	0.833576
0.0683594	-0.0577567	0.833575
0.0683594	-0.0538505	0.833512
0.0683594	-0.0421317	0.833509
0.0683594	-0.0265067	0.833518
0.0683594	-0.0226005	0.833501
0.0683594	-0.0186942	0.8335
0.0683594	0.0242745	0.83401
0.0683594	0.0281808	0.834067
0.0683594	0.032087	0.83403
0.0683594	0.0359933	0.834108
0.0683594	0.0398995	0.834155
0.0683594	0.0438058	0.834099
0.0683594	0.047712	0.834096
0.0683594	0.0516183	0.834258
-0.0214844	-0.0382255	0.896391
-0.0214844	-0.030413	0.896413
-0.0214844	-0.00306922	0.896973
-0.0214844	0.00474328	0.896973
-0.0214844	0.00864953	0.896963
-0.0214844	0.0125558	0.896682
-0.0214844	0.016462	0.896627
-0.0214844	0.0242745	0.896529
-0.0292969	-0.0421317	0.888198
0.00195312	0.0750558	0.880388
0.00195312	0.078962	0.880631
0.00195312	0.0828683	0.880569
0.00195312	0.0867745	0.880759
0.00195312	0.176618	0.881348
-0.0175781	0.180525	0.896843
0.0292969	0.19615	0.857361
0.0292969	0.200056	0.857326
0.0292969	0.203962	0.857355
0.0332031	0.184431	0.861387
0.0332031	0.188337	0.861398
0.0605469	-0.0499442	0.845296
0.0605469	-0.046038	0.845215
0.0605469	-0.0343192	0.845251
0.0605469	-0.0265067	0.845223
0.0605469	-0.0226005	0.845215
0.0605469	0.0281808	0.845782
0.0605469	0.032087	0.845738
0.0605469	0.0359933	0.845719
0.0605469	0.0398995	0.845821
0.0605469	0.0438058	0.845834
0.0605469	0.047712	0.845862
