-131.822  331.439     1071
-127.578  330.201     1067
-123.825  330.201     1067
-119.623  328.963     1063
-115.449  327.725     1059
-111.725  327.725     1059
-107.592  326.488     1055
-103.882  326.488     1055
-100.172  326.488     1055
-96.1879  325.559     1052
-92.1367  324.321     1048
-87.7761  321.846     1040
-84.1187  321.846     1040
-80.4614  321.846     1040
-76.5825  320.917     1037
-72.9357  320.917     1037
-69.2889  320.917     1037
-65.3889  319.679     1033
-61.5769  318.751     1030
-57.9547  318.751     1030
-54.1215  317.513     1026
-50.5134  317.513     1026
-46.7225  316.275     1022
-43.0018  315.347     1019
-39.4183  315.347     1019
-35.6942  314.109     1015
-32.0298   313.18     1012
 -28.471   313.18     1012
-24.8382  312.252     1009
-21.2055  311.014     1005
-17.6185  310.086     1002
-14.0385  308.848      998
-10.5289  308.848      998
-6.99817   307.92      995
-3.48854  306.991      992
       0  306.991      992
 3.47447  305.753      988
 6.92784  304.825      985
 10.3918  304.825      985
 13.8557  304.825      985
 17.2668  303.896      982
 20.7202  303.896      982
 24.0751  302.659      978
   27.43   301.73      975
 30.8588   301.73      975
  34.182  300.802      972
 37.4842  299.873      969
 40.8918  299.873      969
 44.1623  298.945      966
 47.4117  298.017      963
 50.7983  298.017      963
 53.9598  296.779      959
 57.1529   295.85      956
 60.5148   295.85      956
 63.6763  294.922      953
 67.0277  294.922      953
 70.1575  293.994      950
 73.4984  293.994      950
 76.5966  293.065      947
 79.9269  293.065      947
 82.9934  292.137      944
 86.3131  292.137      944
  89.348  291.208      941
 92.3618   290.28      938
 95.6604   290.28      938
 98.6426  289.352      935
 101.931  289.352      935
 104.881  288.423      932
 107.811  287.495      929
 111.078  287.495      929
 114.344  287.495      929
 117.232  286.566      926
 120.098  285.638      923
 123.076  285.019      921
 126.315  285.019      921
 129.132  284.091      918
  132.36  284.091      918
 135.589  284.091      918
 138.363  283.162      915
 141.117  282.234      912
 143.849  281.305      909
 146.561  280.377      906
 149.747  280.377      906
 152.933  280.377      906
 156.119  280.377      906
 159.305  280.377      906
 161.056  277.901      898
 164.214  277.901      898
 166.813  276.973      895
 169.961  276.973      895
 173.108  276.973      895
 175.862  276.354      893
 179.002  276.354      893
  181.53  275.426      890
 184.038  274.497      887
 186.735  273.878      885
 189.847  273.878      885
 192.306   272.95      882
 195.407   272.95      882
 197.834  272.021      879
 200.925  272.021      879
 203.552  271.402      877
 205.929  270.474      874
 209.003  270.474      874
 212.076  270.474      874
  215.15  270.474      874
 218.223  270.474      874
 220.031  268.927      869
 222.574  268.308      867
 225.622  268.308      867
  227.88  267.379      864
 230.919  267.379      864
 233.145  266.451      861
 235.624  265.832      859
 238.645  265.832      859
 240.822  264.904      856
 243.832  264.904      856
 246.842  264.904      856
 249.269  264.285      854
 251.681  263.666      852
  253.78  262.737      849
 256.766  262.737      849
  259.14  262.118      847
 262.118  262.118      847
 264.158   261.19      844
 267.126   261.19      844
 269.454  260.571      842
 272.415  260.571      842
 274.395  259.643      839
 276.685  259.024      837
 279.628  259.024      837
 281.896  258.405      835
 284.833  258.405      835
 287.769  258.405      835
 289.661  257.476      832
  291.18  256.239      828
 294.092  256.239      828
 297.004  256.239      828
 298.829   255.31      825
  301.73   255.31      825
 304.631   255.31      825
 306.787  254.691      823
 308.929  254.072      821
 311.816  254.072      821
 313.553  253.144      818
  316.43  253.144      818
 318.526  252.525      816
 320.608  251.906      814
 322.676  251.287      812
 324.729  250.668      810
 327.578  250.668      810
 330.426  250.668      810
  332.04   249.74      807
 334.878   249.74      807
 336.879  249.121      805
 338.866  248.502      803
 340.839  247.883      801
 341.511  246.336      796
  344.31  246.336      796
 347.109  246.336      796
 349.029  245.717      794
 351.822  245.717      794
 353.721  245.098      792
 355.606  244.479      790
 358.384  244.479      790
 360.248   243.86      788
 362.097  243.241      786
 363.933  242.622      784
  366.69  242.622      784
 368.505  242.003      782
 371.255  242.003      782
 373.048  241.384      780
 374.828  240.765      778
 377.564  240.765      778
 379.322  240.146      776
 382.051  240.146      776
 383.292  239.218      773
 386.011  239.218      773
 387.723  238.599      771
 388.409  237.361      767
 391.106  237.361      767
 393.804  237.361      767
 396.501  237.361      767
 399.198  237.361      767
 400.848  236.742      765
   400.9  235.195      760
 403.573  235.195      760
 406.246  235.195      760
 408.918  235.195      760
 410.508  234.576      758
 413.173  234.576      758
 415.839  234.576      758
 417.401  233.957      756
 418.948  233.338      754
 421.599  233.338      754
       0        0        0
       0        0        0
       0        0        0
-679.656  376.625     1231
-672.584  375.095     1226
-668.273  375.095     1226
-769.567  434.755     1421
 -764.57  434.755     1421
-759.572  434.755     1421
-750.858  432.614     1414
-738.501   428.33     1400
-733.577   428.33     1400
-728.654   428.33     1400
-723.731   428.33     1400
-715.727  426.495     1394
-710.824  426.495     1394
-702.377  424.353     1387
  -697.5  424.353     1387
-689.626  422.517     1381
-681.298  420.376     1374
-676.466  420.376     1374
-668.702   418.54     1368
-660.979  416.704     1362
-652.817  414.563     1355
-645.182  412.727     1349
-640.438  412.727     1349
-632.867  410.891     1343
-628.144  410.891     1343
-623.421  410.891     1343
-615.934  409.055     1337
-608.489   407.22     1331
-603.809   407.22     1331
-596.427  405.384     1325
-591.768  405.384     1325
-584.449  403.548     1319
-577.173  401.713     1313
-570.376  400.183     1308
 -563.18  398.347     1302
-556.028  396.511     1296
 -551.47  396.511     1296
 -544.38  394.676     1290
-537.751  393.146     1285
-533.233  393.146     1285
-526.245   391.31     1279
-521.747   391.31     1279
-515.227  389.781     1274
-510.747  389.781     1274
-503.882  387.945     1268
-499.423  387.945     1268
-493.012  386.415     1263
-488.571  386.415     1263
-479.913   383.05     1252
 -475.51   383.05     1252
-469.226   381.52     1247
 -464.84   381.52     1247
-460.455   381.52     1247
-454.241   379.99     1242
  -447.7  378.154     1236
-443.354  378.154     1236
-437.231  376.625     1231
-431.144  375.095     1226
-426.832  375.095     1226
-420.798  373.565     1221
-414.798  372.035     1216
-410.522  372.035     1216
-406.246  372.035     1216
-400.317  370.506     1211
-396.058  370.506     1211
-390.181  368.976     1206
 -385.94  368.976     1206
-381.699  368.976     1206
-375.893  367.446     1201
-370.122  365.916     1196
-364.693  364.693     1192
-360.501  364.693     1192
-354.814  363.163     1187
 -350.64  363.163     1187
-346.466  363.163     1187
-339.408  360.103     1177
-335.269  360.103     1177
-330.004   358.88     1173
-325.879   358.88     1173
-320.383   357.35     1168
-316.275   357.35     1168
-312.168   357.35     1168
 -308.06   357.35     1168
-302.652   355.82     1163
-297.535  354.596     1159
-292.193  353.067     1154
-288.135  353.067     1154
-283.092  351.843     1150
-279.048  351.843     1150
-275.004  351.843     1150
-270.959  351.843     1150
-265.755  350.313     1145
-260.814  349.089     1141
-256.801  349.089     1141
-251.903  347.865     1137
-246.814  346.336     1132
-242.833  346.336     1132
-238.008  345.112     1128
-234.041  345.112     1128
-229.259  343.888     1124
-224.304  342.358     1119
-220.369  342.358     1119
 -215.66  341.134     1115
-211.739  341.134     1115
-207.818  341.134     1115
-203.165  339.911     1111
-199.258  339.911     1111
-194.648  338.687     1107
-190.065  337.463     1103
-186.187  337.463     1103
-181.647  336.239     1099
-176.973   334.71     1094
-172.493  333.486     1090
-168.041  332.262     1086
-164.221  332.262     1086
-159.812  331.038     1082
-156.006  331.038     1082
-152.201  331.038     1082
-147.848  329.814     1078
-143.656  328.896     1075
-139.876  328.896     1075
-135.589  327.673     1071
-131.822  327.673     1071
-127.578  326.449     1067
-123.825  326.449     1067
-119.623  325.225     1063
-115.449  324.001     1059
-111.303  322.777     1055
-107.592  322.777     1055
-103.882  322.777     1055
-99.8875   321.86     1052
-96.1879   321.86     1052
-92.1367  320.636     1048
-87.7761  318.188     1040
-84.1187  318.188     1040
-80.4614  318.188     1040
-76.5825   317.27     1037
-72.9357   317.27     1037
-69.2889   317.27     1037
-65.3889  316.047     1033
-61.5769  315.129     1030
-57.7296  313.905     1026
-54.1215  313.905     1026
-50.5134  313.905     1026
-46.7225  312.681     1022
-43.1284  312.681     1022
-39.4183  311.763     1019
-35.6942  310.539     1015
-32.0298  309.622     1012
 -28.471  309.622     1012
-24.8382  308.704     1009
-21.2055   307.48     1005
-17.6185  306.562     1002
-14.0385  305.338      998
-10.5289  305.338      998
-6.99817   304.42      995
-3.49909   304.42      995
       0  303.503      992
 3.47447  302.279      988
 6.92784  301.361      985
 10.3918  301.361      985
 13.8557  301.361      985
 17.3196  301.361      985
 20.7202  300.443      982
 24.0751  299.219      978
   27.43  298.301      975
 30.8588  298.301      975
  34.182  297.384      972
 37.4842  296.466      969
 40.8918  296.466      969
 44.1623  295.548      966
 47.4117   294.63      963
 50.7983   294.63      963
 53.9598  293.406      959
 57.1529  292.488      956
 60.5148  292.488      956
 63.6763  291.571      953
 67.0277  291.571      953
 70.1575  290.653      950
 73.2663  289.735      947
 76.5966  289.735      947
 79.9269  289.735      947
 82.9934  288.817      944
 86.3131  288.817      944
  89.348  287.899      941
 92.3618  286.981      938
 95.6604  286.981      938
 98.6426  286.063      935
 101.931  286.063      935
 104.881  285.146      932
 107.811  284.228      929
 111.078  284.228      929
 113.975   283.31      926
 117.232   283.31      926
 120.488   283.31      926
 123.344  282.392      923
 126.315   281.78      921
 129.132  280.862      918
  132.36  280.862      918
 135.589  280.862      918
 138.363  279.944      915
 141.117  279.027      912
 143.849  278.109      909
 147.046  278.109      909
 150.243  278.109      909
 152.933  277.191      906
 156.119  277.191      906
 158.953  276.579      904
 161.056  274.743      898
 164.214  274.743      898
 166.813  273.825      895
 169.961  273.825      895
 173.108  273.825      895
 175.862  273.214      893
 178.401  272.296      890
  181.53  272.296      890
 184.038  271.378      887
 186.735  270.766      885
 189.847  270.766      885
 192.306  269.848      882
 195.407  269.848      882
 197.834   268.93      879
 200.925   268.93      879
 203.552  268.318      877
 205.929    267.4      874
 209.003    267.4      874
 212.076    267.4      874
 214.657  266.789      872
 216.975  265.871      869
 220.031  265.871      869
 222.574  265.259      867
 225.622  265.259      867
  227.88  264.341      864
 230.117  263.423      861
 233.145  263.423      861
 235.624  262.811      859
 238.645  262.811      859
 240.822  261.893      856
 243.832  261.893      856
 246.842  261.893      856
 249.269  261.281      854
 252.272  261.281      854
 254.677   260.67      852
 256.766  259.752      849
 259.752  259.752      849
 262.118   259.14      847
 264.158  258.222      844
 267.126  258.222      844
 269.454   257.61      842
 272.415   257.61      842
 274.395  256.692      839
 276.685   256.08      837
 279.628   256.08      837
 281.896  255.468      835
 284.833  255.468      835
 287.769  255.468      835
 289.661  254.551      832
  291.18  253.327      828
 294.092  253.327      828
 297.004  253.327      828
 298.829  252.409      825
  301.73  252.409      825
 303.893  251.797      823
 306.787  251.797      823
 308.929  251.185      821
 311.816  251.185      821
 313.553  250.267      818
 315.656  249.655      816
 318.526  249.655      816
  319.82  248.432      812
 322.676  248.432      812
 324.729   247.82      810
 327.578   247.82      810
 330.426   247.82      810
  332.04  246.902      807
 334.878  246.902      807
 336.879   246.29      805
  339.71   246.29      805
 340.839  245.066      801
 342.798  244.454      799
  344.31  243.536      796
 347.109  243.536      796
 349.029  242.924      794
 351.822  242.924      794
 353.721  242.313      792
 355.606  241.701      790
 358.384  241.701      790
 360.248  241.089      788
 363.019  241.089      788
 363.933  239.865      784
  366.69  239.865      784
 368.505  239.253      782
 371.255  239.253      782
 373.048  238.641      780
 374.828  238.029      778
 376.593  237.417      776
 379.322  237.417      776
 380.574    236.5      773
 383.292    236.5      773
 385.012  235.888      771
 387.723  235.888      771
 389.422  235.276      769
 390.087  234.052      765
 392.777  234.052      765
 394.433   233.44      763
 397.116   233.44      763
 400.848  234.052      765
   400.9  232.522      760
 403.573  232.522      760
 405.177   231.91      758
 407.842   231.91      758
 410.508   231.91      758
 413.173   231.91      758
 415.839   231.91      758
 417.401  231.298      756
 418.948  230.686      754
 421.599  230.686      754
       0        0        0
       0        0        0
       0        0        0
-679.656  372.296     1231
-672.584  370.784     1226
-668.273  370.784     1226
-769.567  429.758     1421
 -764.57  429.758     1421
-759.572  429.758     1421
-750.858  427.641     1414
-742.193  425.524     1407
-733.577  423.407     1400
-728.654  423.407     1400
-723.731  423.407     1400
-715.727  421.592     1394
-710.824  421.592     1394
-702.377  419.475     1387
  -697.5  419.475     1387
-689.626  417.661     1381
-681.298  415.544     1374
-676.466  415.544     1374
-668.702  413.729     1368
-663.891  413.729     1368
-656.189  411.914     1362
-645.182  407.983     1349
-640.438  407.983     1349
-635.694  407.983     1349
-628.144  406.168     1343
-623.421  406.168     1343
-615.934  404.354     1337
-608.489  402.539     1331
-603.809  402.539     1331
-596.427  400.724     1325
-591.768  400.724     1325
-584.449   398.91     1319
-577.173  397.095     1313
-570.376  395.583     1308
 -563.18  393.768     1302
-556.028  391.954     1296
 -551.47  391.954     1296
 -544.38  390.139     1290
-537.751  388.627     1285
-533.233  388.627     1285
-526.245  386.812     1279
-521.747  386.812     1279
-515.227    385.3     1274
-508.342  383.486     1268
-503.882  383.486     1268
-499.423  383.486     1268
-493.012  381.974     1263
-488.571  381.974     1263
-479.913  378.647     1252
 -475.51  378.647     1252
-469.226  377.135     1247
 -464.84  377.135     1247
-458.609  375.622     1242
-454.241  375.622     1242
  -447.7  373.808     1236
-443.354  373.808     1236
-437.231  372.296     1231
-431.144  370.784     1226
-426.832  370.784     1226
-422.521  370.784     1226
-416.504  369.271     1221
-410.522  367.759     1216
-406.246  367.759     1216
-400.317  366.247     1211
-396.058  366.247     1211
-391.799  366.247     1211
 -385.94  364.735     1206
-381.699  364.735     1206
-375.893  363.223     1201
-370.122  361.711     1196
-364.693  360.501     1192
-360.501  360.501     1192
-354.814  358.989     1187
 -350.64  358.989     1187
-345.006  357.476     1182
-339.408  355.964     1177
-335.269  355.964     1177
-330.004  354.755     1173
-325.879  354.755     1173
-320.383  353.242     1168
-316.275  353.242     1168
-312.168  353.242     1168
 -308.06  353.242     1168
-302.652   351.73     1163
-297.535   350.52     1159
-292.193  349.008     1154
-288.135  349.008     1154
-283.092  347.799     1150
-279.048  347.799     1150
-275.004  347.799     1150
-270.959  347.799     1150
-265.755  346.286     1145
-261.728  346.286     1145
-256.801  345.077     1141
-250.795  342.355     1132
-246.814  342.355     1132
-242.833  342.355     1132
-238.008  341.145     1128
-234.041  341.145     1128
-229.259  339.935     1124
-224.304  338.423     1119
-220.369  338.423     1119
 -215.66  337.213     1115
-211.739  337.213     1115
-207.818  337.213     1115
-203.165  336.004     1111
-199.258  336.004     1111
-194.648  334.794     1107
-190.065  333.584     1103
-186.187  333.584     1103
-181.647  332.374     1099
-177.782  332.374     1099
-173.126  330.862     1094
-168.041  328.443     1086
-164.221  328.443     1086
-159.812  327.233     1082
-156.006  327.233     1082
-152.201  327.233     1082
-147.848  326.023     1078
-143.656  325.116     1075
-139.876  325.116     1075
-135.589  323.906     1071
-131.822  323.906     1071
-127.578  322.697     1067
-123.825  322.697     1067
-120.073  322.697     1067
-115.885  321.487     1063
-111.303  319.067     1055
-107.592  319.067     1055
-103.882  319.067     1055
-99.8875   318.16     1052
-96.1879   318.16     1052
-92.1367   316.95     1048
-87.7761  314.531     1040
-84.1187  314.531     1040
-80.4614  314.531     1040
-76.8041  314.531     1040
-72.9357  313.624     1037
-69.2889  313.624     1037
-65.3889  312.414     1033
-61.5769  311.507     1030
-57.7296  310.297     1026
-53.9105  309.087     1022
-50.3165  309.087     1022
-46.7225  309.087     1022
-43.0018   308.18     1019
-39.4183   308.18     1019
-35.8349   308.18     1019
-32.0298  306.063     1012
 -28.471  306.063     1012
-24.8382  305.155     1009
-21.2899  305.155     1009
-17.6713  303.946     1005
-14.0948  303.038     1002
-10.5289  301.829      998
-6.99817  300.921      995
-3.49909  300.921      995
       0  300.014      992
 3.47447  298.804      988
 6.94894  298.804      988
 10.4234  298.804      988
 13.8557  297.897      985
 17.3196  297.897      985
 20.7202   296.99      982
 24.0751   295.78      978
   27.43  294.873      975
 30.7638  293.965      972
  34.182  293.965      972
 37.4842  293.058      969
 40.8918  293.058      969
 44.1623  292.151      966
 47.5594  292.151      966
 50.7983  291.243      963
 53.9598  290.034      959
 57.1529  289.126      956
 60.5148  289.126      956
 63.8768  289.126      956
 67.0277  288.219      953
 70.1575  287.312      950
 73.2663  286.405      947
 76.5966  286.405      947
 79.9269  286.405      947
 83.2571  286.405      947
 86.3131  285.497      944
  89.348   284.59      941
 92.6572   284.59      941
 95.6604  283.683      938
 98.9591  283.683      938
 101.604  281.868      932
 104.881  281.868      932
 107.811  280.961      929
 111.078  280.961      929
 113.975  280.053      926
 117.232  280.053      926
 120.488  280.053      926
 123.344  279.146      923
 126.315  278.541      921
 129.132  277.634      918
  132.36  277.634      918
 135.589  277.634      918
 138.363  276.727      915
 141.117  275.819      912
 143.849  274.912      909
 147.046  274.912      909
 150.243  274.912      909
 152.933  274.005      906
 156.119  274.005      906
 158.953    273.4      904
 161.056  271.585      898
 164.214  271.585      898
 166.813  270.678      895
 169.961  270.678      895
 173.108  270.678      895
 175.862  270.073      893
 178.401  269.166      890
  181.53  269.166      890
 184.038  268.259      887
 187.157  268.259      887
 189.847  267.654      885
  192.96  267.654      885
 195.407  266.746      882
 197.834  265.839      879
 200.925  265.839      879
 203.552  265.234      877
 206.636  265.234      877
 209.003  264.327      874
 212.076  264.327      874
 214.657  263.722      872
 216.975  262.815      869
 219.525   262.21      867
 222.574   262.21      867
 225.622   262.21      867
  227.88  261.303      864
 230.117  260.395      861
 233.145  260.395      861
 235.624   259.79      859
 238.645   259.79      859
 240.822  258.883      856
 243.832  258.883      856
 246.842  258.883      856
 249.269  258.278      854
 251.681  257.673      852
 254.677  257.673      852
 256.766  256.766      849
 259.752  256.766      849
 262.118  256.161      847
 264.158  255.254      844
 267.126  255.254      844
 269.454  254.649      842
 271.445  253.742      839
 274.395  253.742      839
 276.685  253.137      837
 279.628  253.137      837
 282.571  253.137      837
 284.833  252.532      835
 287.769  252.532      835
 289.661  251.625      832
 291.884   251.02      830
 294.092  250.415      828
 297.004  250.415      828
 298.829  249.508      825
  301.73  249.508      825
 303.893  248.903      823
 306.787  248.903      823
 308.929  248.298      821
 311.816  248.298      821
 313.553  247.391      818
 315.656  246.786      816
 318.526  246.786      816
  319.82  245.576      812
 322.676  245.576      812
 325.531  245.576      812
 327.578  244.971      810
 330.426  244.971      810
  332.04  244.064      807
 334.878  244.064      807
 336.879  243.459      805
  339.71  243.459      805
  341.69  242.854      803
 342.798  241.644      799
 345.608  241.644      799
 347.109  240.737      796
 349.909  240.737      796
 351.822  240.132      794
 354.614  240.132      794
 355.606  238.923      790
 358.384  238.923      790
 360.248  238.318      788
 363.019  238.318      788
 364.861  237.713      786
 367.626  237.713      786
 369.447  237.108      784
 371.255  236.503      782
 373.048  235.898      780
 374.828  235.293      778
 376.593  234.688      776
 379.322  234.688      776
 380.574  233.781      773
 383.292  233.781      773
 385.012  233.176      771
 387.723  233.176      771
 389.422  232.571      769
 390.087  231.362      765
 392.777  231.362      765
 394.433  230.757      763
 397.116  230.757      763
   399.8  230.757      763
 401.955  230.454      762
 403.573   229.85      760
 405.177  229.245      758
 407.842  229.245      758
 410.508  229.245      758
 412.083   228.64      756
 414.742   228.64      756
 417.401   228.64      756
 418.948  228.035      754
 421.599  228.035      754
       0        0        0
       0        0        0
       0        0        0
-676.896  366.472     1226
-672.584  366.472     1226
-668.273  366.472     1226
-769.567  424.761     1421
 -764.57  424.761     1421
-759.572  424.761     1421
-750.858  422.668     1414
-742.193  420.576     1407
-733.577  418.484     1400
-728.654  418.484     1400
-723.731  418.484     1400
-715.727   416.69     1394
-710.824   416.69     1394
-702.377  414.598     1387
  -697.5  414.598     1387
-689.626  412.804     1381
-681.298  410.712     1374
-673.513  408.918     1368
-668.702  408.918     1368
-663.891  408.918     1368
-656.189  407.125     1362
-648.052  405.032     1355
-640.438  403.239     1349
-635.694  403.239     1349
-628.144  401.445     1343
-623.421  401.445     1343
-618.698  401.445     1343
-608.489  397.858     1331
-603.809  397.858     1331
-596.427  396.065     1325
-591.768  396.065     1325
-584.449  394.271     1319
-577.173  392.478     1313
-570.376  390.983     1308
 -563.18   389.19     1302
-556.028  387.396     1296
 -551.47  387.396     1296
 -544.38  385.603     1290
-537.751  384.108     1285
-530.743  382.315     1279
-526.245  382.315     1279
-519.707   380.82     1274
-515.227   380.82     1274
-508.342  379.027     1268
-503.882  379.027     1268
-499.423  379.027     1268
-494.964  379.027     1268
-488.571  377.532     1263
-479.913  374.244     1252
 -475.51  374.244     1252
-469.226  372.749     1247
 -464.84  372.749     1247
-458.609  371.255     1242
-454.241  371.255     1242
-449.873  371.255     1242
-443.354  369.461     1236
-437.231  367.967     1231
-432.902  367.967     1231
-426.832  366.472     1226
-422.521  366.472     1226
-416.504  364.978     1221
 -412.21  364.978     1221
-406.246  363.483     1216
-400.317  361.988     1211
-396.058  361.988     1211
-391.799  361.988     1211
 -385.94  360.494     1206
-380.117  358.999     1201
-374.328  357.505     1196
-370.122  357.505     1196
-364.693  356.309     1192
-360.501  356.309     1192
-356.309  356.309     1192
 -350.64  354.814     1187
-345.006   353.32     1182
-339.408  351.825     1177
-335.269  351.825     1177
-330.004   350.63     1173
-325.879   350.63     1173
-320.383  349.135     1168
-316.275  349.135     1168
-312.168  349.135     1168
 -308.06  349.135     1168
-302.652   347.64     1163
-297.535  346.445     1159
-292.193   344.95     1154
-288.135   344.95     1154
-283.092  343.754     1150
-279.048  343.754     1150
-275.004  343.754     1150
-270.959  343.754     1150
-265.755   342.26     1145
-261.728   342.26     1145
-256.801  341.064     1141
-250.795  338.374     1132
-246.814  338.374     1132
-242.833  338.374     1132
-238.008  337.178     1128
-234.041  337.178     1128
-228.239  334.488     1119
-224.304  334.488     1119
-220.369  334.488     1119
 -215.66  333.292     1115
-211.739  333.292     1115
-207.818  333.292     1115
-203.165  332.097     1111
-198.541  330.901     1107
-194.648  330.901     1107
-190.065  329.705     1103
-186.187  329.705     1103
-182.308  329.705     1103
-177.782   328.51     1099
-173.917   328.51     1099
-168.041  324.624     1086
-164.221  324.624     1086
-159.812  323.428     1082
-156.006  323.428     1082
-152.201  323.428     1082
-147.848  322.232     1078
-144.057  322.232     1078
-139.876  321.336     1075
-135.589   320.14     1071
-131.822   320.14     1071
-127.578  318.944     1067
-123.825  318.944     1067
-120.073  318.944     1067
-115.885  317.749     1063
-111.725  316.553     1059
-107.592  315.357     1055
-103.882  315.357     1055
-99.8875  314.461     1052
-96.1879  314.461     1052
-92.1367  313.265     1048
-88.1137  312.069     1044
-84.1187  310.874     1040
-80.4614  310.874     1040
-76.8041  310.874     1040
-72.9357  309.977     1037
-69.2889  309.977     1037
-65.3889  308.781     1033
-61.5769  307.884     1030
-57.7296  306.689     1026
-53.9105  305.493     1022
-50.3165  305.493     1022
-46.7225  305.493     1022
-43.0018  304.596     1019
-39.4183  304.596     1019
-35.8349  304.596     1019
-32.0298  302.504     1012
 -28.471  302.504     1012
-24.8382  301.607     1009
-21.2899  301.607     1009
-17.6713  300.411     1005
-14.0948  299.515     1002
-10.5289  298.319      998
-6.99817  297.422      995
-3.49909  297.422      995
       0  296.526      992
 3.47447   295.33      988
 6.94894   295.33      988
 10.3918  294.433      985
 13.8557  294.433      985
 17.2668  293.536      982
 20.7202  293.536      982
 24.0751  292.341      978
   27.43  291.444      975
 30.7638  290.547      972
  34.182  290.547      972
 37.4842   289.65      969
 40.8918   289.65      969
 44.2995   289.65      969
 47.5594  288.754      966
 50.7983  287.857      963
 54.1848  287.857      963
 57.3323  286.661      959
 60.5148  285.765      956
 63.8768  285.765      956
 67.0277  284.868      953
 70.3791  284.868      953
 73.2663  283.074      947
 76.5966  283.074      947
 79.9269  283.074      947
 82.9934  282.178      944
 86.3131  282.178      944
  89.348  281.281      941
 92.6572  281.281      941
 95.6604  280.384      938
 98.9591  280.384      938
 101.604  278.591      932
 104.881  278.591      932
 107.811  277.694      929
 111.078  277.694      929
 113.975  276.797      926
 117.232  276.797      926
 120.098    275.9      923
 123.076  275.302      921
 126.315  275.302      921
 129.132  274.406      918
  132.36  274.406      918
 135.589  274.406      918
  137.91  272.612      912
 141.117  272.612      912
 143.849  271.715      909
 147.046  271.715      909
 150.243  271.715      909
 152.933  270.819      906
 156.119  270.819      906
 158.953  270.221      904
 161.056  268.427      898
 164.214  268.427      898
 167.372  268.427      898
 169.961  267.531      895
 173.108  267.531      895
 175.862  266.933      893
 179.002  266.933      893
 182.142  266.933      893
 184.038  265.139      887
 187.157  265.139      887
 190.276  265.139      887
  192.96  264.541      885
 195.407  263.645      882
 198.509  263.645      882
 200.925  262.748      879
 203.552   262.15      877
 206.636   262.15      877
  209.72   262.15      877
 212.076  261.253      874
 214.657  260.656      872
 216.476  259.161      867
 219.525  259.161      867
 222.574  259.161      867
 225.622  259.161      867
  227.88  258.264      864
 230.919  258.264      864
 233.145  257.367      861
 235.624   256.77      859
 238.645   256.77      859
 240.822  255.873      856
 243.832  255.873      856
 246.842  255.873      856
 249.269  255.275      854
 251.681  254.677      852
 254.677  254.677      852
 256.766   253.78      849
 259.752   253.78      849
 262.118  253.183      847
 265.097  253.183      847
 267.126  252.286      844
 269.454  251.688      842
 271.445  250.791      839
 274.395  250.791      839
 276.685  250.193      837
 279.628  250.193      837
 282.571  250.193      837
 284.833  249.596      835
 287.769  249.596      835
 290.705  249.596      835
 291.884  248.101      830
 294.092  247.503      828
 297.004  247.503      828
 298.829  246.606      825
  301.73  246.606      825
 303.893  246.009      823
 306.787  246.009      823
 308.929  245.411      821
 310.677  244.514      818
 313.553  244.514      818
 315.656  243.916      816
 318.526  243.916      816
 320.608  243.318      814
  323.47  243.318      814
 326.333  243.318      814
 327.578  242.123      810
 330.426  242.123      810
 333.275  242.123      810
 334.878  241.226      807
 336.879  240.628      805
  339.71  240.628      805
  341.69   240.03      803
 342.798  238.835      799
 345.608  238.835      799
 347.109  237.938      796
 349.909  237.938      796
 351.822   237.34      794
 354.614   237.34      794
 355.606  236.144      790
 358.384  236.144      790
 360.248  235.547      788
 363.019  235.547      788
  365.79  235.547      788
 367.626  234.949      786
 369.447  234.351      784
 371.255  233.753      782
 373.048  233.155      780
 375.791  233.155      780
 377.564  232.557      778
 379.322   231.96      776
 380.574  231.063      773
 383.292  231.063      773
 385.012  230.465      771
 386.718  229.867      769
 389.422  229.867      769
 391.106  229.269      767
 392.777  228.671      765
 394.433  228.074      763
 397.116  228.074      763
   399.8  228.074      763
 401.955  227.775      762
 404.635  227.775      762
 407.315  227.775      762
 408.918  227.177      760
 410.508  226.579      758
 412.083  225.981      756
 414.742  225.981      756
 417.401  225.981      756
 418.948  225.383      754
 421.599  225.383      754
       0        0        0
       0        0        0
       0        0        0
-676.896  362.161     1226
-672.584  362.161     1226
-774.564  419.764     1421
-769.567  419.764     1421
 -764.57  419.764     1421
-759.572  419.764     1421
-750.858  417.696     1414
-742.193  415.628     1407
-737.245  415.628     1407
-728.654   413.56     1400
-723.731   413.56     1400
-715.727  411.788     1394
-710.824  411.788     1394
-702.377   409.72     1387
  -697.5   409.72     1387
-689.626  407.948     1381
-681.298   405.88     1374
-673.513  404.107     1368
-668.702  404.107     1368
-663.891  404.107     1368
-656.189  402.335     1362
-648.052  400.267     1355
-640.438  398.495     1349
-635.694  398.495     1349
-628.144  396.722     1343
-623.421  396.722     1343
-615.934   394.95     1337
-608.489  393.178     1331
-603.809  393.178     1331
-599.128  393.178     1331
-591.768  391.405     1325
-584.449  389.633     1319
-577.173   387.86     1313
-570.376  386.383     1308
 -563.18  384.611     1302
-556.028  382.839     1296
 -551.47  382.839     1296
 -544.38  381.066     1290
-537.751  379.589     1285
-530.743  377.817     1279
-524.188   376.34     1274
-519.707   376.34     1274
-515.227   376.34     1274
-508.342  374.567     1268
-503.882  374.567     1268
-499.423  374.567     1268
-494.964  374.567     1268
-488.571   373.09     1263
-479.913  369.841     1252
 -475.51  369.841     1252
-471.107  369.841     1252
 -464.84  368.364     1247
-458.609  366.887     1242
-454.241  366.887     1242
  -447.7  365.115     1236
-443.354  365.115     1236
-437.231  363.638     1231
-432.902  363.638     1231
-426.832  362.161     1226
-422.521  362.161     1226
-418.209  362.161     1226
 -412.21  360.684     1221
-406.246  359.207     1216
-400.317   357.73     1211
-396.058   357.73     1211
-391.799   357.73     1211
 -385.94  356.253     1206
-380.117  354.776     1201
-374.328  353.299     1196
-370.122  353.299     1196
-364.693  352.117     1192
-360.501  352.117     1192
-356.309  352.117     1192
 -350.64   350.64     1187
-345.006  349.163     1182
-339.408  347.686     1177
-335.269  347.686     1177
-330.004  346.504     1173
-325.879  346.504     1173
-321.754  346.504     1173
-316.275  345.027     1168
-312.168  345.027     1168
 -308.06  345.027     1168
-302.652   343.55     1163
-297.535  342.369     1159
-292.193  340.892     1154
-288.135  340.892     1154
-283.092   339.71     1150
-279.048   339.71     1150
-275.004   339.71     1150
-270.959   339.71     1150
-265.755  338.233     1145
-260.814  337.052     1141
-255.901   335.87     1137
-251.903   335.87     1137
-246.814  334.393     1132
-242.833  334.393     1132
-238.008  333.211     1128
-234.041  333.211     1128
-228.239  330.553     1119
-224.304  330.553     1119
-220.369  330.553     1119
 -215.66  329.371     1115
-211.739  329.371     1115
-207.818  329.371     1115
-203.165   328.19     1111
-198.541  327.008     1107
-194.648  327.008     1107
-190.065  325.826     1103
-185.511  324.645     1099
-181.647  324.645     1099
-177.782  324.645     1099
-173.917  324.645     1099
-168.041  320.805     1086
-164.221  320.805     1086
-159.812  319.623     1082
-156.006  319.623     1082
-152.201  319.623     1082
-147.848  318.441     1078
-144.057  318.441     1078
-139.876  317.555     1075
-135.589  316.374     1071
-131.822  316.374     1071
-128.056  316.374     1071
 -124.29  316.374     1071
-120.073  315.192     1067
-115.885   314.01     1063
-111.303  311.647     1055
-107.592  311.647     1055
-103.882  311.647     1055
-99.8875  310.761     1052
-96.1879  310.761     1052
-92.1367  309.579     1048
-88.4513  309.579     1048
-84.4423  308.398     1044
-80.4614  307.216     1040
-76.8041  307.216     1040
-73.1467  307.216     1040
-69.2889   306.33     1037
-65.3889  305.148     1033
-61.5769  304.262     1030
-57.7296  303.081     1026
-54.1215  303.081     1026
-50.3165  301.899     1022
-46.7225  301.899     1022
-43.0018  301.013     1019
-39.4183  301.013     1019
-35.6942  299.831     1015
-32.0298  298.945     1012
 -28.471  298.945     1012
-24.8382  298.059     1009
-21.2899  298.059     1009
-17.6713  296.877     1005
-14.0948  295.991     1002
-10.5289  294.809      998
-6.99817  293.923      995
-3.49909  293.923      995
       0  293.037      992
 3.47447  291.855      988
 6.94894  291.855      988
 10.3918  290.969      985
 13.8557  290.969      985
 17.2668  290.083      982
 20.6358  288.901      978
 24.0751  288.901      978
   27.43  288.015      975
 30.8588  288.015      975
  34.182  287.129      972
 37.6002  287.129      972
 40.8918  286.243      969
 44.2995  286.243      969
 47.5594  285.357      966
 50.9565  285.357      966
 54.1848   284.47      963
 57.3323  283.289      959
 60.5148  282.403      956
 63.8768  282.403      956
 67.0277  281.516      953
 70.3791  281.516      953
 73.2663  279.744      947
 76.5966  279.744      947
 79.9269  279.744      947
 82.9934  278.858      944
 86.3131  278.858      944
  89.348  277.972      941
 92.6572  277.972      941
 95.6604  277.085      938
 98.9591  277.085      938
 101.604  275.313      932
 104.881  275.313      932
 107.811  274.427      929
 111.078  274.427      929
 113.975  273.541      926
 117.232  273.541      926
 120.098  272.654      923
 123.076  272.064      921
 126.315  272.064      921
 129.132  271.177      918
  132.36  271.177      918
 135.589  271.177      918
  137.91  269.405      912
 141.117  269.405      912
 143.849  268.519      909
 147.046  268.519      909
 150.243  268.519      909
 152.933  267.633      906
 155.774  267.042      904
 158.426  266.156      901
 161.594  266.156      901
 164.214  265.269      898
 167.372  265.269      898
 169.961  264.383      895
 173.108  264.383      895
 176.255  264.383      895
 179.002  263.792      893
 182.142  263.792      893
 184.038   262.02      887
 187.157   262.02      887
 190.276   262.02      887
 193.396   262.02      887
 196.072  261.429      885
 198.509  260.543      882
 200.468  259.066      877
 203.552  259.066      877
 206.636  259.066      877
  209.72  259.066      877
 212.076   258.18      874
 214.657  257.589      872
 216.476  256.112      867
 219.525  256.112      867
 222.574  256.112      867
 225.622  256.112      867
  227.88  255.226      864
 230.919  255.226      864
 233.145   254.34      861
 235.624  253.749      859
 237.811  252.863      856
 240.822  252.863      856
 243.832  252.863      856
 246.842  252.863      856
 249.269  252.272      854
 251.681  251.681      852
 254.677  251.681      852
 256.766  250.795      849
 259.752  250.795      849
 262.118  250.204      847
 265.097  250.204      847
 267.126  249.318      844
 270.094  249.318      844
 272.415  248.727      842
 274.395  247.841      839
 277.346  247.841      839
 279.628   247.25      837
 282.571   247.25      837
 284.833  246.659      835
 287.769  246.659      835
 289.661  245.773      832
 291.884  245.182      830
 294.802  245.182      830
 297.004  244.591      828
 299.916  244.591      828
  301.73  243.705      825
 303.893  243.114      823
 306.787  243.114      823
 308.929  242.524      821
 310.677  241.637      818
 313.553  241.637      818
 315.656  241.047      816
 318.526  241.047      816
 321.395  241.047      816
  323.47  240.456      814
 326.333  240.456      814
 328.387  239.865      812
 330.426  239.274      810
 333.275  239.274      810
 334.878  238.388      807
 336.879  237.797      805
  339.71  237.797      805
 340.839  236.616      801
 342.798  236.025      799
 345.608  236.025      799
 347.109  235.139      796
 349.909  235.139      796
 352.708  235.139      796
 354.614  234.548      794
 355.606  233.366      790
 358.384  233.366      790
 360.248  232.775      788
 363.019  232.775      788
  365.79  232.775      788
 367.626  232.185      786
  370.39  232.185      786
 371.255  231.003      782
 373.048  230.412      780
 375.791  230.412      780
 378.534  230.412      780
   380.3  229.821      778
 382.051  229.231      776
 383.292  228.344      773
 385.012  227.754      771
 386.718  227.163      769
 389.422  227.163      769
 391.106  226.572      767
 392.777  225.981      765
 395.467  225.981      765
 397.116   225.39      763
   399.8   225.39      763
 401.955  225.095      762
 404.635  225.095      762
 407.315  225.095      762
 408.918  224.504      760
 410.508  223.913      758
 412.083  223.323      756
 414.742  223.323      756
 416.296  222.732      754
 418.948  222.732      754
 421.599  222.732      754
       0        0        0
       0        0        0
       0        0        0
-674.135   356.39     1221
-669.841   356.39     1221
-774.564  414.767     1421
-769.567  414.767     1421
 -764.57  414.767     1421
-755.831  412.723     1414
-750.858  412.723     1414
-742.193   410.68     1407
-737.245   410.68     1407
-728.654  408.637     1400
-720.629  406.886     1394
-715.727  406.886     1394
-710.824  406.886     1394
-705.922  406.886     1394
  -697.5  404.842     1387
-689.626  403.091     1381
-681.298  401.048     1374
-676.466  401.048     1374
-668.702  399.297     1368
-660.979  397.545     1362
-652.817  395.502     1355
-648.052  395.502     1355
-640.438  393.751     1349
-635.694  393.751     1349
-628.144      392     1343
-623.421      392     1343
-615.934  390.248     1337
-608.489  388.497     1331
-603.809  388.497     1331
-599.128  388.497     1331
-591.768  386.746     1325
-584.449  384.994     1319
-577.173  383.243     1313
-570.376  381.784     1308
 -563.18  380.032     1302
-556.028  378.281     1296
 -551.47  378.281     1296
 -544.38   376.53     1290
-537.751   375.07     1285
-530.743  373.319     1279
-524.188   371.86     1274
-519.707   371.86     1274
-515.227   371.86     1274
-508.342  370.108     1268
-503.882  370.108     1268
-499.423  370.108     1268
-494.964  370.108     1268
 -486.25  366.898     1257
-479.913  365.438     1252
 -475.51  365.438     1252
-471.107  365.438     1252
 -464.84  363.979     1247
-458.609  362.519     1242
-454.241  362.519     1242
  -447.7  360.768     1236
 -441.56  359.309     1231
-437.231  359.309     1231
-432.902  359.309     1231
-426.832  357.849     1226
-422.521  357.849     1226
-418.209  357.849     1226
 -412.21   356.39     1221
-406.246   354.93     1216
-400.317  353.471     1211
-396.058  353.471     1211
-390.181  352.012     1206
 -385.94  352.012     1206
-381.699  352.012     1206
-375.893  350.552     1201
-370.122  349.093     1196
-364.693  347.925     1192
-360.501  347.925     1192
-356.309  347.925     1192
 -350.64  346.466     1187
-346.466  346.466     1187
 -340.85  345.006     1182
-335.269  343.547     1177
-330.004  342.379     1173
-325.879  342.379     1173
-321.754  342.379     1173
-316.275   340.92     1168
-312.168   340.92     1168
 -308.06   340.92     1168
-302.652  339.461     1163
-297.535  338.293     1159
-292.193  336.834     1154
-288.135  336.834     1154
-283.092  335.666     1150
-279.048  335.666     1150
-275.004  335.666     1150
-269.781  334.207     1145
-265.755  334.207     1145
-260.814  333.039     1141
-255.901  331.872     1137
-251.903  331.872     1137
-247.904  331.872     1137
-242.833  330.412     1132
-238.852  330.412     1132
-234.041  329.245     1128
-229.259  328.077     1124
-224.304  326.618     1119
-220.369  326.618     1119
 -215.66   325.45     1115
-211.739   325.45     1115
-207.818   325.45     1115
-203.165  324.283     1111
-198.541  323.115     1107
-193.944  321.948     1103
-190.065  321.948     1103
-185.511   320.78     1099
-181.647   320.78     1099
-177.782   320.78     1099
-173.917   320.78     1099
-168.659  318.153     1090
-164.221  316.986     1086
-159.812  315.818     1082
-156.006  315.818     1082
-152.201  315.818     1082
-147.848   314.65     1078
-144.057   314.65     1078
-139.876  313.775     1075
-135.589  312.607     1071
-131.822  312.607     1071
-128.056  312.607     1071
-123.825   311.44     1067
-119.623  310.272     1063
-115.449  309.105     1059
-111.303  307.937     1055
-107.592  307.937     1055
-103.882  307.937     1055
-100.172  307.937     1055
-96.1879  307.061     1052
-92.1367  305.894     1048
-88.4513  305.894     1048
-84.4423  304.726     1044
-80.4614  303.559     1040
-76.8041  303.559     1040
-72.9357  302.683     1037
-69.2889  302.683     1037
-65.3889  301.516     1033
-61.5769   300.64     1030
-57.7296  299.473     1026
-54.1215  299.473     1026
-50.3165  298.305     1022
-46.7225  298.305     1022
-43.0018  297.429     1019
-39.4183  297.429     1019
-35.6942  296.262     1015
-32.0298  295.386     1012
 -28.471  295.386     1012
-24.9121  295.386     1012
-21.2899   294.51     1009
-17.6713  293.343     1005
-14.0948  292.467     1002
-10.5289    291.3      998
-6.99817  290.424      995
-3.49909  290.424      995
       0  289.548      992
 3.47447  288.381      988
 6.94894  288.381      988
 10.3918  287.505      985
 13.8135   286.63      982
 17.2668   286.63      982
 20.6358  285.462      978
 24.0751  285.462      978
 27.5144  285.462      978
 30.8588  284.586      975
 34.2875  284.586      975
 37.6002  283.711      972
 40.8918  282.835      969
 44.2995  282.835      969
 47.5594   281.96      966
 50.9565   281.96      966
 54.1848  281.084      963
 57.3323  279.916      959
 60.5148  279.041      956
 63.8768  279.041      956
 67.0277  278.165      953
 70.3791  278.165      953
 73.2663  276.414      947
 76.5966  276.414      947
 79.9269  276.414      947
 82.9934  275.538      944
 86.3131  275.538      944
  89.348  274.662      941
 92.6572  274.662      941
 95.6604  273.787      938
 98.6426  272.911      935
 101.931  272.911      935
 104.881  272.035      932
 107.811   271.16      929
 111.078   271.16      929
 113.975  270.284      926
 117.232  270.284      926
 120.098  269.409      923
 123.076  268.825      921
 126.315  268.825      921
 129.132  267.949      918
  132.36  267.949      918
 135.589  267.949      918
 138.363  267.073      915
 141.117  266.198      912
 143.849  265.322      909
 147.046  265.322      909
 150.243  265.322      909
 152.933  264.447      906
 155.774  263.863      904
 158.426  262.987      901
 161.594  262.987      901
 164.214  262.111      898
 167.372  262.111      898
 169.961  261.236      895
 173.108  261.236      895
 176.255  261.236      895
 179.403  261.236      895
 182.142  260.652      893
  184.66  259.776      890
 187.157  258.901      887
 190.276  258.901      887
  192.96  258.317      885
 196.072  258.317      885
 198.509  257.441      882
 200.468  255.982      877
 203.552  255.982      877
 206.636  255.982      877
  209.72  255.982      877
 212.076  255.106      874
 214.657  254.522      872
 216.476  253.063      867
 219.525  253.063      867
 222.574  253.063      867
 225.622  253.063      867
  227.88  252.187      864
 230.919  252.187      864
 233.145  251.312      861
 235.624  250.728      859
