   -283.837     -158.75     0.21167
   -276.337    -157.988     2.95178
   -148.685    -154.005     49.7097
   -141.163    -154.568     52.4752
   -133.657    -154.215     55.2233
   -126.144    -154.258     57.9789
   -200.418    -116.231    -20.8871
   -7.36926    -250.807    -50.5883
   -201.546    -320.014    -120.885
    -128.64    -276.184    -43.5948
   -196.678    -326.516    -110.491
   -24.6038    -283.395    -47.9575
   -9.60815    -281.552    -42.4827
   -279.065    -190.428    -57.2742
   -405.546    -113.336      -19.45
   -398.037     -113.03    -16.7003
   -390.531     -112.63    -13.9532
   -383.026      -112.2    -11.2068
   -171.292    -301.038    -41.8672
    824.655     -302.09     263.711
    262.352    -357.811    -35.4914
   -258.225     -133.38    -24.8156
    145.118    -281.787    -139.131
   -118.279    -130.749     34.9888
    16.1209    -218.735    -93.5239
     283.25    -348.727     23.1811
    290.759    -348.501     25.9316
    250.804    -325.577    -6.06317
    258.315    -325.447    -3.31067
    58.9619    -356.287    -178.267
    -162.44    -158.573    -168.313
    265.335     -327.08    -68.8871
    -238.08    -230.453    -50.2406
   -92.1567    -331.619     -46.533
   -164.436    -159.253     -186.08
   -83.3198    -157.148    -105.232
  -0.854858    -146.599    -75.1304
   -30.9788    -66.7196    -44.6182
    276.614    -343.192     -98.626
    143.956    -256.806     -114.32
    268.086    -327.011    -76.4003
    5.18896    -178.819    -89.5355
    259.466    -349.783    -28.1342
   -3.47394    -154.565    -67.4653
   -206.488    -278.076    -63.5958
   -146.406    -276.838      -41.58
    2.30841    -171.143    -82.1715
   -222.092    -319.016    -111.388
   -214.584    -318.804    -108.637
    536.277    -307.211     260.289
    249.692    -334.659    -48.9589
    207.596    -303.773    -98.8873
    1095.81    -330.229     269.776
    263.209    -333.456     7.11023
    288.008    -348.565     33.4465
    295.512    -348.081     36.1922
    254.933    -318.856    -64.2886
   -114.006    -146.065     70.8432
   -248.098     -125.15    -29.7311
   -218.055    -124.636    -18.7212
   -127.934    -122.692     14.3007
   -241.891    -287.196    -59.4145
   -196.847    -285.312    -42.9214
   -159.406     -175.38    -175.503
    255.413    -303.027    -89.8857
   -109.388    -137.599     80.9467
   -28.8928    -146.929    -68.3655
    259.263    -293.137    -54.5173
   -281.245    -149.138    -7.48529
   -273.722    -149.787    -4.71802
   -131.049      -145.6     47.5457
   -123.528    -146.085     50.3096
   -108.502    -146.076     55.8198
    842.704    -318.223     262.019
   -250.841    -125.729    -22.2081
    -243.33    -125.655    -19.4548
   -123.177    -122.546     24.5645
   -249.126    -67.7603     -286.51
   -241.622    -67.2809    -283.764
   -238.101     -109.08    -34.7995
   -110.424    -106.679     11.9883
   -102.912    -106.552     14.7413
    -74.915    -299.498    -49.1531
   -278.491    -149.241    -14.9969
   -270.974    -149.527    -12.2367
   -143.311    -146.154      34.533
   -135.796     -146.33     37.2912
   -128.279    -146.581     40.0508
   -120.785    -145.485     42.7845
   -98.2369    -146.059     51.0606
   -118.431    -121.685     34.8144
   -196.791    -319.745    -110.621
     256.03    -308.896    -21.4097
    263.539    -308.668    -18.6592
   -209.189    -312.206     -123.79
    15.9932    -211.097     -93.671
   -271.679    -182.875    -54.6647
   -264.174    -182.422    -51.9188
   -218.879    -271.053    -76.7531
   -211.368    -270.985    -73.9995
   -136.281    -268.476     -46.498
     304.87    -338.275     56.5368
   -405.704    -103.875    -19.6323
   -398.191    -103.815    -16.8778
   -390.681      -103.7    -14.1253
   -383.173    -103.429    -11.3757
   -24.7634    -273.855    -48.1412
   -9.72382    -274.632     -42.616
    254.708    -349.952    -38.3977
   -7.64526      -234.3    -50.9062
    275.609    -341.013     20.2775
   -268.246    -223.607    -61.3922
   -260.738    -223.311    -58.6432
    137.475    -274.012    -142.035
    152.492    -273.487    -136.536
   -283.999     -149.04   0.0246582
    -276.49    -148.882     2.77643
    -111.25    -146.293     63.3358
   -157.068    -150.591    -183.492
    270.844     -327.29    -83.9086
    257.692     -319.28    -71.7923
   -203.592    -59.9931     53.9066
   -173.556    -59.0536     64.9083
   -110.727    -284.236    -45.4413
   -171.564    -284.803    -42.1798
    265.686    -303.527    -94.6329
    260.441    -319.109    -79.3073
    280.362    -340.607     30.5383
   -16.0033    -139.309    -80.7811
   -236.653    -271.262    -74.7467
   -229.141    -271.235    -71.9924
   -221.631     -271.11    -69.2401
   -214.125    -270.702    -66.4932
   -146.547    -268.368    -41.7431
    255.558    -325.216     4.19666
     249.54    -325.573    -49.1339
   -214.711    -311.192    -108.784
    -49.499     -307.08    -48.2546
   -225.693    -117.139    -21.6203
    251.697     -334.49    -31.1836
    4.92596    -163.091    -89.8384
   -108.288    -114.327     29.9164
   -257.052      -279.2    -65.0787
   -249.532    -279.652    -62.3152
   -234.511    -279.313    -56.8115
   -211.988    -278.339    -48.5653
   -251.888    -67.2278    -279.008
    222.485    -295.622    -93.5344
    229.996    -295.502    -90.7817
    237.506    -295.377    -88.0292
    245.017    -295.258    -85.2766
    252.527    -295.098    -82.5247
    -29.022    -139.197    -68.5144
   -5.34827    -162.622    -85.0911
   -256.769    -59.9933    -289.414
   -111.055    -113.416     37.4106
   -103.538     -113.71     40.1711
    266.641    -285.074    -51.9175
   -106.633    -137.744     73.4378
   -230.713    -101.664    -32.1875
   -125.588    -98.3845     6.31903
   -118.079    -98.1608      9.0694
   -103.036    -99.1877     14.5995
    210.223    -296.245    -106.546
    225.248    -296.259    -101.036
    232.758    -296.039    -98.2851
    240.268    -295.914    -95.5326
    247.779    -295.807    -92.7797
   -109.657    -121.523     80.6373
   -196.943    -310.678    -110.796
   -31.7275    -306.647    -50.2645
   -263.604    -140.877    -9.64771
   -116.151    -137.918     52.9079
   -101.126    -137.882     58.4168
   -11.3834    -130.923     -70.676
   -136.407     -260.95    -46.6429
   -262.287    -59.1819    -274.404
   -9.87872    -265.368    -42.7944
   -211.864    -165.706    -32.9557
   -204.352    -165.665     -30.202
    -196.84    -165.658    -27.4471
   -189.324    -165.734    -24.6902
   -181.816    -165.479    -21.9405
   -174.309     -165.18    -19.1915
   -166.809    -164.424    -16.4512
   -151.786    -164.214     -10.945
   -144.264    -164.779    -8.17932
   -136.755    -164.605    -5.42786
   -129.244    -164.432    -2.67572
   -121.734     -164.25   0.0753784
   -114.225    -164.089     2.82721
   -106.716    -163.903     5.57843
    -99.204    -163.738     8.33063
    -91.705     -162.94     11.0701
   -84.1912    -163.033     13.8267
   -246.373    -67.8385     -294.02
   -238.862    -67.7684    -291.266
   -209.353    -302.357    -123.979
   -201.837    -302.577     -121.22
    268.437    -303.462    -102.146
    66.0696    -332.089    -175.979
    118.622    -329.817    -156.737
   -7.77551    -226.512    -51.0562
   -75.3062    -276.097    -49.6037
   -103.354    -275.891    -42.8472
    15.7211    -194.818    -93.9844
    -167.18     -159.73    -178.559
    -218.74    -52.6112     48.2548
   -211.225     -52.793     51.0131
   -196.208    -52.2906      56.513
   -188.695    -52.2307     59.2673
   -181.186    -52.0624     62.0189
   -166.173    -51.3328     67.5143
   -158.665    -50.9494     70.2625
   -151.163    -50.3676      73.006
      842.3    -294.079     261.554
   -238.353    -214.107    -50.5554
    254.514    -293.786    -64.7714
   -239.277    -278.913    -67.0876
   -224.261    -278.373    -61.5884
   -209.235     -278.35    -56.0787
   -179.213    -276.622    -45.0921
    246.936    -334.454     -41.451
    262.915    -315.857     6.77142
    263.064    -311.319    -86.9711
    280.203    -331.103     30.3553
   -115.946    -105.704     26.9949
   -100.924    -105.425     32.4997
   -240.847    -109.497    -27.2777
   -233.335    -109.515    -24.5226
   -120.698    -106.155      16.737
   -113.188    -106.049     19.4898
   -105.671    -106.195      22.248
    -8.6286    -131.079    -78.1849
    1088.04    -314.553      266.72
   -104.014    -129.766     65.7723
   -227.139    -270.888    -54.2191
   -219.632    -270.572    -51.4703
    -204.63    -269.095    -45.9885
   -259.526    -59.6715    -281.908
    -200.79    -94.0238    -21.3149
   -193.278    -93.8452    -18.5627
   -185.769    -93.6667    -15.8115
   -178.261     -93.437    -13.0612
   -170.751    -93.2831    -10.3093
   -163.242    -92.9918    -7.55945
   -155.733    -92.7662    -4.80902
   -148.232    -92.0759     -2.0675
   -140.727    -91.6292    0.678589
   -264.421    -51.6323     -292.33
     2.0354    -154.813     -82.486
   -22.3112    -91.2558    -66.6828
   -154.328    -252.414    -44.8057
    244.875    -286.743    -85.4406
    252.384    -286.507    -82.6901
   -254.019    -59.8092    -296.929
   -137.412    -9.23297    -246.312
   -129.903    -9.05234    -243.561
   -216.443    -100.962    -1.39886
    251.415    -317.595    -31.5089
    257.264    -293.676    -72.2853
   -29.2924    -123.025    -68.8259
   -269.935    -51.1035    -277.314
   -92.9528    -284.004    -47.4499
   -208.615    -271.026    -81.5106
   -103.489    -267.795    -43.0031
    15.5877    -186.844     -94.138
   -114.281    -129.664     70.5274
    259.886    -285.893     -79.947
   -134.665    -8.96707    -253.829
   -127.149     -9.1489    -251.071
   -25.0143    -258.846    -48.4302
   -67.9338    -267.729    -47.0101
   -249.534    -159.325    -46.8533
   -242.025    -159.122    -44.1024
   -234.515    -158.986    -41.3503
   -227.005    -158.816    -38.5987
   -219.494    -158.637    -35.8469
   -166.953    -155.819    -16.6169
   -151.932    -155.462    -11.1134
    65.9274    -323.586    -176.142
   -116.279    -130.214     52.7596
   -7.91901    -217.929    -51.2214
   -215.259    -278.404    -109.415
    -213.69     -101.04    -8.90906
   -101.039      -98.55     32.3675
    261.887    -285.462    -62.1768
    269.402    -285.602    -59.4191
    256.649    -301.412    -46.8442
   -19.1595    -115.151    -73.7345
   -11.6531    -114.792    -70.9866
   -143.776     -42.837     75.6158
   -136.271    -42.4373      78.363
   -128.764     -42.005       81.11
    -167.33    -150.765    -178.732
   -113.663    -122.074     45.0892
    -267.18    -51.2348    -284.826
    1084.89    -290.918     273.776
    159.734    -257.314    -134.092
     212.29    -255.313    -114.846
    246.785    -325.403    -41.6254
    142.368    -281.901    -131.617
    -231.89    -271.417    -64.4771
   -216.878    -270.689    -58.9816
   -186.852     -269.17     -47.991
   -136.821    -236.165    -47.1202
   -209.735     -279.51    -124.419
   -239.092    -94.3952    -9.79028
    -231.58    -94.2555     -7.0376
   -224.071    -94.0831    -4.28607
   -209.058    -93.3616     1.20959
   -201.554    -92.7858     3.95398
    1080.39    -306.307     263.806
   -204.991    -278.586    -114.169
    682.437    -48.7137     216.755
   -195.493    -23.5493    -156.643
   -5.60382    -147.339    -85.3854
   -226.077    -94.1804    -22.0624
   -218.563    -94.2823    -19.3057
   -211.054    -94.1037    -16.5544
   -203.544    -93.9252    -13.8031
   -196.033    -93.7466    -11.0511
   -188.524    -93.5599     -8.2998
   -181.016    -93.3077    -5.54999
   -173.514    -92.6563    -2.80774
   -166.008    -92.1582  -0.0618286
   -161.969    -244.714    -47.7089
    257.557    -324.653     21.9662
   -261.666    -51.7903    -299.838
   -145.066   -0.784027     -249.23
   -126.151    -260.408    -51.4105
   -257.471     -254.11    -65.5619
   -73.4031    -74.1349     25.1368
   -85.5789    -275.724    -44.8546
   -89.4933    -117.134    -90.9789
    -29.418    -115.511    -68.9706
   -302.233    -36.8691    -306.389
   -111.807    -113.011     62.6949
   -270.206    -34.8866    -277.627
    244.749    -279.225    -85.5853
    252.256     -278.86    -82.8373
   -60.5606    -259.404    -44.4156
    65.8021    -316.091    -176.287
    110.848    -314.176    -159.794
    163.427    -313.561    -140.521
   -50.1635    -267.337      -49.02
   -228.828    -94.2783    -14.5488
   -221.317    -94.1674    -11.7961
   -206.298    -93.8123    -6.29352
   -198.788    -93.5969    -3.54211
   -191.283    -93.1461   -0.795959
   -183.777    -92.7668     1.95135
   -107.052    -112.689     72.9551
    264.029    -293.502    -44.2415
   -17.6378    -250.724    -45.8319
   -159.955    -142.534    -176.135
   -249.691    -149.944    -47.0339
   -144.564    -146.861    -8.52435
   -76.9573    -146.378     16.2607
    258.657    -301.413    -29.0657
    114.545    -250.587    -150.751
    159.586    -248.419    -134.263
   -279.093    -37.6016     25.9263
   -121.389    -33.7456     83.7057
    -209.89    -270.265    -124.597
   -269.075    -174.032    -62.3469
   -239.245    -85.2313    -9.96674
   -186.975    -261.806    -48.1329
   -179.465    -261.574    -45.3818
   -106.288    -113.855     47.6857
    -98.774    -113.931      50.442
   -23.2004    -202.686    -57.0253
    682.329    -42.2911     216.632
   -144.599    -220.291    -50.1807
   -116.562    -113.294     52.4338
   -109.054    -113.073     55.1844
   -101.533    -113.568     57.9484
   -212.645     -270.17    -117.086
   -205.118    -271.044    -114.314
   -299.341     -45.241     -313.74
     -73.54    -65.9537     24.9793
    254.036    -309.756    -39.1717
    134.586    -265.793    -134.682
    149.606    -265.514    -129.177
    209.667    -263.015    -107.186
   -282.597    -27.8757    -290.786
   -126.285    -252.435    -51.5639
   -118.781    -251.933    -48.8189
   -158.768    -75.8857     2.37958
   -76.1583    -74.0015     32.6479
   -212.534     -245.68    -49.1942
    257.409    -315.858     21.7969
    1058.27    -211.382     271.492
   -223.503    -52.5342     37.9843
   -215.985     -52.757      40.744
   -208.471    -52.8077     43.4998
    -200.97    -52.1828     46.2426
   -193.463    -51.8118     48.9901
   -185.948    -51.8871     51.7471
   -178.432    -52.1119     54.5063
   -170.923    -51.8802     57.2565
   -163.422    -51.2553     59.9992
   -155.913    -50.9273     62.7484
    -61.389     57.3107    -202.264
   -237.345    -229.877    -75.5436
   -294.984    -20.9875     -303.94
     139.48    -273.867    -124.258
   -17.7764     -242.43    -45.9916
   -285.348    -27.9675     -283.27
   -270.331    -27.3687    -277.771
    163.272    -304.309    -140.699
    260.921    -303.276    -104.904
   -208.015    -262.369    -106.969
   -42.7844    -259.258      -46.42
   -201.937     32.5728    -142.698
   -137.187    -138.767    -5.92542
   -261.685    -166.659    -59.7341
   -239.147    -166.628    -51.4697
   -201.602    -165.516    -37.7166
    -194.09    -165.495    -34.9622
   -186.574    -165.599    -32.2046
   -179.061    -165.656    -29.4488
   -171.554     -165.34    -26.7001
   -164.046     -165.08    -23.9503
   -156.539    -164.633    -21.2034
    -141.51    -164.894    -15.6889
       -134    -164.769    -12.9365
   -126.491    -164.469    -10.1868
    -118.98     -164.35    -7.43445
    -111.47    -164.208    -4.68231
   -103.961    -164.055    -1.93048
   -96.4518    -163.735    0.818665
   -88.9423    -163.572     3.57043
    -179.61    -252.855    -45.5498
    99.3904    -242.874     -156.41
    136.925     -241.08    -142.669
   -272.955    -35.0602    -270.112
   -182.604    -15.9212    -169.058
   -60.9718    -234.811    -44.8892
   -152.714    -126.321    -173.693
   -179.717     -23.949    -176.415
   -275.442    -50.9023    -262.295
   -23.3249    -195.242    -57.1686
   -15.8289     -194.26    -54.4327
   -194.311    -76.6627     6.39838
   -291.973    -36.4697    -311.153
   -98.8251    -66.3498     24.2355
   -76.2952    -65.8162     32.4903
   -198.379    -15.5665    -149.283
   -250.228    -238.029    -63.1168
    268.908    -300.565    -33.8388
     276.42     -300.53    -31.0845
    -148.53    -43.1551     65.3535
   -141.029    -42.4791     68.0953
   -133.523    -42.1163     70.8431
   -99.0373    -98.1804     50.1385
   -91.5309    -97.8238     52.8865
   -290.233    -20.4544    -293.683
   -282.737    -19.4877    -290.947
   -188.785     24.5797    -154.815
    -169.88    -220.871    -50.9227
   -29.9068    -250.889    -58.8518
   -205.268    -262.038    -114.487
   -32.5218    -259.137    -51.1794
   -133.884    -51.4968     2.66132
   -176.803    -60.5722     4.08624
   -302.158    -6.17218     17.0561
   -294.645    -6.18607     19.8111
   -219.553    -3.96454     47.3181
   -287.608    -12.8407    -301.342
   -280.103    -12.3776    -298.596
    -272.59    -12.4489     -295.84
    134.302    -248.848    -135.008
   -277.965    -20.2076    -280.665
   -208.137    -255.042     -107.11
   -94.2855    -97.7293     60.3984
    146.865    -266.185    -121.651
    206.912    -262.869     -99.675
     223.25    -296.878    -118.802
    230.746    -295.864    -116.067
    238.259    -295.864    -113.312
    245.771    -295.806    -110.558
    253.284    -295.803    -107.803
   -97.1738    -89.5909     67.7535
   -123.532    -252.442    -59.0775
   -116.022    -252.306    -56.3253
    -172.03     41.2266    -131.845
   -17.9014    -234.953    -46.1356
    1050.36    -187.568     268.278
   -247.337    -246.291    -70.4713
   -187.254      -245.1    -48.4547
   -231.761    -159.058    -48.8607
   -224.252    -158.894    -46.1091
    -216.74    -158.736    -43.3567
   -209.231    -158.557    -40.6053
    -141.66    -155.925    -15.8616
    -81.571    -155.129     6.16254
    99.2418    -233.984    -156.581
    114.257    -233.345    -151.083
   -284.596    -28.3578    -308.555
   -277.092    -27.8885    -305.809
   -269.577    -28.0437    -303.051
   -68.7471    -219.082    -47.9468
   -98.9483    -58.9835     24.0937
   -235.069    -125.825    -41.9888
   -174.998    -123.959    -19.9852
   -129.933    -123.219    -3.46936
   -23.4666    -186.764    -57.3319
   -288.097    -28.1371    -275.755
   -185.888     15.9254     -162.16
    1076.98    -267.106     270.563
    683.208     69.7571     206.962
   -268.831    -37.4028     21.1635
   -231.282    -36.5429     34.9216
    -126.14    -34.2685     73.4474
   -118.634     -33.877     76.1946
   -126.493    -44.2529     5.27655
   -118.984    -44.0601     8.02765
    -111.49    -42.9398     10.7609
   -103.987    -42.2596     13.5032
   -111.539    -235.669    -46.3766
    261.268    -292.939    -36.7407
   -282.853    -12.5636     -291.08
   -275.343    -12.3851    -288.329
   -144.678     96.0682    -233.314
   -237.598    -214.739    -75.8351
   -172.474    -7.76239    -173.972
   -290.721    -35.8225    -268.095
   -249.364    -93.9797     -5.0412
   -241.846     -94.274    -2.28082
   -234.336      -94.03     0.46991
   -226.832    -93.5546     3.21558
   -30.0248    -243.831    -58.9877
   -194.589    -60.0404     6.07812
   -184.455    -52.2297     1.17084
   -169.431    -52.0527     6.67761
   -195.675     45.3452    -276.915
   -272.256     2.75391     27.9039
    141.675    -240.486    -132.414
    139.189    -256.444    -124.593
   -198.574     54.1061    -269.571
   -123.661    -244.711    -59.2264
   -116.154    -244.391    -56.4777
   -175.633     16.6073    -166.929
   -179.661     48.3243    -134.736
   -258.112     -215.79    -66.2997
   -250.601    -215.679    -63.5471
    215.601    -288.689    -121.715
   -254.457    -149.674    -57.3063
   -246.941    -149.766    -54.5491
   -156.822    -147.742    -21.5289
   -141.787    -148.323    -16.0081
   -74.2011    -146.614     8.75336
   -166.518     40.8349    -146.863
   -252.116    -93.9916     2.47272
    -244.61    -93.6002     5.21979
   -237.101     -93.313     7.96973
    -190.14    -116.929    -25.6302
    -182.64    -116.229    -22.8888
    -106.59    -51.2225     21.1894
    683.054     78.9885     206.784
   -18.3165    -210.131    -46.6136
   -113.936    -212.412    -64.6053
   -213.241    -52.2576     33.2226
   -205.732    -52.0218     35.9728
   -198.214    -52.3796     38.7346
   -175.689    -51.5349     46.9833
   -168.174    -51.7228     49.7416
   -160.662    -51.7162     52.4963
   -153.163    -50.7658     55.2335
    1042.58    -171.753     265.219
   -104.105    -35.2516     13.3682
   -280.718    -20.1849    -273.154
   -126.697      -227.8    -52.0384
   -97.5827    -65.1355     67.2825
   -51.1065    -210.937     -50.106
   -43.6018    -210.361    -47.3616
   -219.818     11.8921     47.0128
   -249.512     -85.129    -5.21167
   -219.465    -84.8304     5.80231
   -99.3093    -81.9124     49.8253
   -283.338     -28.077     -265.49
   -104.595    -50.4926     38.9538
   -184.573    -45.1868      1.0351
   -162.042     -44.686     9.29059
   -154.532    -44.5587     12.0428
   -147.022    -44.3842     14.7944
   -139.511    -44.1892     17.5461
   -132.007    -43.7261     20.2918
   -116.989    -43.3301     25.7939
    -109.48    -43.0001     28.5429
    146.564    -248.212    -121.997
    -197.51     110.523    -252.878
   -178.776     39.9514    -159.867
    -163.76     40.4579    -154.367
   -165.102    0.642334    -171.379
   -174.161     48.6553    -149.768
   -159.138     48.7421     -144.26
   -83.1746     56.8229    -235.811
   -86.2535    -235.377    -45.6315
   -16.4904    -154.702    -55.1945
   -227.828     -109.59    -39.5468
   -190.271    -109.106    -25.7807
   -291.892    -6.22937     12.2983
   -231.821    -4.29114     34.3004
   -169.275       41.04    -139.353
   -247.851    -215.515    -71.0639
    -141.94    -139.175    -16.1842
   -134.428    -139.195     -13.429
   -168.254     24.5309    -164.327
   -258.395    -198.834    -66.6263
   -220.846     -197.99     -52.868
    140.359    -281.882    -149.396
   -25.9607    -202.243    -49.5202
     1069.2    -251.289     267.504
   -194.609     101.699    -260.221
   -152.776    -180.636    -53.6998
   -252.395    -77.3406     2.15192
   -76.5231    -203.312    -51.0053
   -151.777     -44.692     4.53363
   -144.269    -44.4664     7.28406
   -136.757    -44.3124     10.0366
   -129.248    -44.1134     12.7874
   -121.751    -43.1897     15.5245
    1023.87    -116.029     266.149
    -124.63    -35.6142     22.8903
   -87.0956     -33.882     36.6317
   -234.963     18.9771     41.3661
   -227.449     18.8301     44.1237
   -33.7394    -186.309    -52.5818
   -194.838    -45.1296     5.79095
   -187.333    -44.6604      8.5368
   -179.816    -44.9445     11.2971
   -172.313    -44.2951     14.0401
   -164.799    -44.3725     16.7962
   -157.289    -44.2799     19.5493
    -149.78    -44.0767     22.3001
   -142.266    -44.0313     25.0547
   -134.764    -43.4085     27.7975
   -112.237    -42.7418     36.0496
   -89.7132    -41.9339     44.2984
   -166.631     136.676     -199.29
   -159.116     136.505    -196.532
   -151.605     136.601    -193.779
   -258.431    -45.5491     16.5633
   -235.899    -45.0932     24.8198
   -228.394    -44.6916     27.5667
   -220.874    -45.1293     30.3299
   -190.832    -44.6036     41.3395
    -183.32    -44.4413      44.092
   -145.779    -43.1268      57.841
   -138.275    -42.5839     60.5855
   -108.238    -41.7509     71.5893
   -99.4383    -74.1959     49.6767
   -171.397     47.9364    -157.266
   -124.071    -220.205    -59.6982
    -94.037    -219.153    -48.6988
   -16.6385    -145.841    -55.3651
   -292.032     2.19946     12.1359
   -276.994      1.5166     17.6594
   -176.919     48.9054    -142.259
   -97.7086    -57.6034     67.1374
   -181.939     64.5258    -152.828
   -188.435     61.6567    -274.474
   -146.246     145.324    -208.973
   -160.879     32.7698    -161.731
    -190.27     126.794    -250.436
   -182.893    -101.076    -23.1806
   -137.837    -99.8618    -6.67468
   -130.314    -100.406    -3.90869
   -258.511    -191.893      -66.76
   -220.977    -190.155    -53.0189
   -195.496     96.6629    -141.177
   -88.0682    -171.288    -21.5729
   -80.5604     -171.02    -18.8233
    147.751    -274.673     -146.78
    155.258    -274.339    -144.031
    207.821    -272.724    -124.777
   -191.463     78.1176    -267.279
   -187.366     117.773    -257.776
   -179.868     118.763     -255.04
   -193.542     157.916    -243.524
   -186.043     158.834    -240.786
   -164.866    -116.044    -24.8947
     -114.2    -196.636    -64.9092
   -114.367    -35.5486     18.1321
   -84.3414    -34.0032     29.1221
   -85.3118    -171.534      -29.08
   -77.8047    -171.223    -26.3312
   -70.2949    -171.075    -23.5793
   -265.145     26.7696     30.1962
   -250.117     26.6824     35.7081
   -242.602     26.4924     38.4666
   -59.1498    -179.171    -53.4724
   -266.073    -37.7635     13.6588
   -130.894    -34.7687     63.1896
   -123.385    -34.4284     65.9387
    -115.88    -34.0104     68.6852
   -108.373     -33.664     71.4334
   -31.2431    -170.963    -60.3909
    1061.42    -235.205     264.438
   -205.093     56.7521    -135.652
   -203.552     142.696    -238.474
   -102.462    -57.9747     56.8781
   -127.384    -35.5096     30.4001
   -119.881    -34.9398      33.144
    -242.27    -68.9486    -2.76843
    -258.67    -182.379    -66.9432
   -236.845    -215.303    -101.117
   -101.669    -211.975    -51.5917
   -255.541    -53.7673      9.2099
   -97.8428    -49.5778      66.983
   -34.1241    -163.301    -53.0248
   -210.654     104.632     -146.84
   -169.584    -15.9705    -181.327
   -137.841     136.436    -231.337
   -181.066     70.2253    -271.884
   -136.011     71.5668     -255.38
   -128.515     72.5336    -252.644
   -75.9302     72.8478    -233.365
   -262.253     18.4755     22.8423
   -232.215     19.2634     33.8469
   -175.506    -93.5766    -20.5703
   -167.997    -93.4061    -17.8188
    -160.49    -92.9533     -15.072
   -152.976    -93.0429    -12.3155
   -145.469    -92.7477    -9.56647
   -115.447    -90.9627     1.41901
   -107.937    -90.8661     4.17194
   -131.529     88.2021    -245.434
   -170.804    -165.642    -51.9861
   -163.297    -165.337    -49.2374
   -155.788    -165.101    -46.4871
   -148.275    -165.017    -43.7332
   -125.741     -164.86     -35.472
   -118.228    -164.773    -32.7181
   -110.717    -164.707    -29.9647
   -103.208    -164.529    -27.2133
   -95.6988    -164.328    -24.4624
   -73.1782    -163.237    -16.2184
   -192.209     64.6935    -148.073
    125.198     313.259     16.1854
    132.582    -266.105    -152.454
     162.63    -265.907    -141.438
    200.172    -264.546     -127.69
   -106.827     -188.21    -62.3159
   -84.2984    -187.699    -54.0615
    677.567     77.9246     221.829
   -172.489     126.741    -252.439
   -153.028    -165.605    -53.9892
    -145.52    -165.205    -51.2415
   -138.013    -164.906    -48.4924
   -122.998    -164.342    -42.9937
   -115.477     -164.72    -40.2311
   -107.966    -164.661    -37.4774
   -100.454    -164.627    -34.7232
   -92.9446    -164.447    -31.9719
   -62.9208    -162.805    -20.9838
   -59.2784    -171.483    -53.6205
   -205.228     64.8268    -135.807
    -31.369    -163.439    -60.5358
   -169.386     136.818    -191.781
   -161.872     136.726    -189.025
   -195.698     -189.39    -52.2821
   -257.761     34.4577      32.803
   -89.9816    -25.8788     43.9892
   -178.794     174.551    -238.334
   -171.291     175.137     -235.59
   -230.261    -53.0908     9.95001
   -211.203     150.969    -241.388
   -203.704     151.792    -238.649
   -165.116    -101.088    -25.1826
   -135.081    -100.083    -14.1822
   -266.219    -29.0131     13.4902
   -101.862    -155.949    -77.9608
    -242.38    -62.3398    -2.89575
   -212.357    -60.6715     8.09186
   -197.634     104.483    -159.108
   -139.397     184.975    -206.982
   -203.276     112.681     -144.24
   -140.896    -157.089    -41.1312
   -133.392    -156.548    -38.3868
    -58.298    -154.482    -10.8768
   -236.992    -206.508    -101.286
   -124.326    -204.948     -59.992
   -116.827    -204.151    -57.2527
   -213.864    -166.133     -50.726
   -206.358     -165.75    -47.9786
   -198.849    -165.559    -45.2275
    -191.34    -165.393     -42.476
   -183.826    -165.384    -39.7206
   -176.314    -165.328     -36.967
   -168.802     -165.34    -34.2119
    -161.29    -165.319    -31.4576
   -153.781    -164.965    -28.7089
   -131.247    -164.816    -20.4474
   -123.735    -164.656     -17.695
   -116.226    -164.484    -14.9437
   -108.717    -164.297    -12.1924
   -101.208    -164.092    -9.44159
    -93.696     -163.95    -6.68878
   -86.1879      -163.7     -3.9389
   -78.6906    -162.801    -1.20148
   -173.687     78.2697    -269.284
   -166.184     78.8168    -266.539
   -128.635     79.7075    -252.782
   -68.5495     80.7202    -230.762
   -61.0439      81.124    -228.015
    653.933     290.459     39.9409
   -255.688    -44.9495     9.03998
   -248.162    -45.7762     11.8107
   -240.647    -45.8556     14.5677
   -233.136     -45.763     17.3207
   -225.631    -45.3348     20.0671
   -218.126    -44.8757     22.8132
   -210.608    -45.1107     25.5732
   -203.096    -45.0754     28.3273
   -195.587    -44.9011     31.0787
   -188.078    -44.7164     33.8299
    -180.57    -44.3535     36.5783
   -173.057    -44.3551     39.3331
   -165.548    -44.1787     42.0847
   -158.039    -43.9837     44.8356
    -150.53    -43.6742     47.5851
   -143.027    -43.1046     50.3289
   -135.523    -42.6128     53.0742
   -105.484    -41.8536     64.0794
   -183.023     142.788    -247.989
    -254.88     26.8045     25.4366
   -247.361     26.4855     28.1983
   -239.847     26.4142     30.9544
    298.666     335.036     215.856
    152.084      337.96     34.2414
   -130.637    -156.759    -45.8945
   -55.5421    -154.703    -18.3843
    132.584      320.83     18.7946
    -114.48    -179.876    -65.2319
   -106.943    -181.272    -62.4495
    134.183     345.273     36.1043
    141.694     345.387     38.8571
    149.204     345.514     41.6096
   -184.222     94.3227    -264.836
   -176.714     94.7162    -262.088
   -131.649     95.3739    -245.572
    117.433    -258.699    -158.107
    124.942    -258.461    -155.357
    170.004     -257.58    -138.844
    192.526    -256.639    -130.597
    200.035    -256.385    -127.847
    207.539    -255.852    -125.102
   -108.202    -74.9992     3.86639
   -194.894     105.248    -166.635
    -165.11     134.726    -249.838
    -157.61     135.421    -247.096
   -51.8904    -164.049    -51.0089
   -36.8809    -163.027    -45.5183
    677.411     87.2563     221.649
    -91.592    -156.219    -82.7144
   -25.2014    -83.0047    -59.3299
   -163.737     128.169    -206.638
   -222.874    -45.5991     12.5605
   -215.379    -44.5934      15.296
   -207.864    -44.6074     18.0517
   -200.348    -44.8096     20.8104
   -192.835    -44.8522     23.5659
   -185.329    -44.4894     26.3138
    -177.82    -44.1757     29.0632
   -170.313    -43.8498     31.8116
   -162.794     -44.267     34.5744
   -155.289      -43.81     37.3204
   -147.774    -43.8751     40.0771
   -140.276    -42.9985      42.815
   -110.238    -42.2576     53.8205
    -95.227    -41.4174     59.3139
   -185.228     96.5567    -145.932
    709.262     291.217     51.6993
   -211.315     157.653    -241.516
   -203.805     157.822    -238.765
   -196.298     158.123    -236.016
   -189.244     96.5341     -181.49
   -157.737    -92.9659    -22.5836
   -150.222    -93.1476    -19.8253
   -142.723    -92.3611    -17.0856
   -94.4807    -148.101    -75.3572
   -163.914     183.239    -232.992
   -195.913     121.614    -141.658
     341.32      359.82      214.13
    348.828     360.107     216.879
    363.836     361.223     222.367
   -126.025      -147.9    -35.7986
   -65.9341     -147.19    -13.7728
   -127.753    -164.607    -53.2552
   -112.725    -164.678    -47.7436
   -105.215    -164.591    -44.9905
   -97.7022    -164.595    -42.2357
   -90.1909    -164.537     -39.482
   -82.6794    -164.367    -36.7299
   -75.1702    -164.182    -33.9786
   -67.6618    -163.944    -31.2284
   -60.1644    -163.051    -28.4909
   -244.043    -158.486    -61.8931
   -146.409    -156.587    -26.1155
    -71.313     -154.74     1.39807
     127.96     312.652      8.6853
    135.467     313.039     11.4328
    -266.33    -22.3839     13.3625
   -251.326    -21.1547     18.8483
    -162.26     159.918    -189.471
    601.233     297.103     20.5287
    623.763     297.553     28.7844
    631.273     297.794     31.5352
    638.784     297.863     34.2888
    646.299     297.749     37.0457
    661.309     298.716     42.5373
   -158.806     86.8673     -263.94
    413.433     344.529     181.122
    331.051     360.104     218.881
   -242.674    -44.7552    -3.23438
   -235.156    -44.9861   -0.474426
   -205.111    -44.6465     10.5388
   -197.596    -44.7588     13.2956
   -190.086    -44.6458     16.0483
    -182.57    -44.8767     18.8074
   -175.061    -44.5507     21.5567
   -167.563      -43.67     24.2945
   -160.044    -44.0974     27.0576
   -152.531    -44.1503     29.8134
   -145.021    -43.9061     32.5641
   -137.521    -43.1727     35.3047
   -107.486    -42.1842     46.3055
   -92.4714    -41.5773     51.8034
   -123.271    -147.994    -43.3085
     313.41     351.876     221.041
   -190.882     239.037    -209.527
     -255.8    -38.2526     8.91113
    -128.14    -34.8858     55.6801
    -120.63    -34.5822     58.4299
   -113.125    -34.1479     61.1762
    129.432     344.756     25.8458
    136.939     345.096     28.5941
    144.452     345.067     31.3497
    159.471     345.444     36.8522
     -205.9     105.022    -136.581
     403.04      352.23     185.731
    410.548     352.475     188.481
   -99.2343    -148.448    -85.6188
   -190.529     128.865    -156.823
   -183.021     129.222    -154.074
   -114.601     -172.69    -65.3703
   -107.098    -172.002    -62.6281
    -84.561    -171.996    -54.3639
    295.911     335.224     223.364
   -44.5172    -155.614    -48.4158
   -196.085    -166.213    -52.7285
   -188.585    -165.506    -49.9873
   -173.564    -165.165    -44.4837
   -166.053    -165.113    -41.7299
   -158.536    -165.375      -38.97
   -151.027    -165.053    -36.2207
   -128.493    -164.865      -27.96
   -120.982    -164.716    -25.2074
   -113.471    -164.607    -22.4548
   -105.963    -164.369    -19.7046
   -98.4523    -164.252     -16.952
   -90.9424    -163.993    -14.2017
   -83.4377    -163.536    -11.4556
   -75.9314    -163.178    -8.70776
   -68.4278    -162.657    -5.96307
   -169.336     102.732    -259.488
    192.384    -248.147    -130.761
    214.905    -247.085    -122.516
    132.304     337.569     18.4722
    147.328     337.662     23.9804
    154.843     337.514     26.7382
    696.249     291.022     63.9717
    711.261     291.759     69.4671
   -150.226      143.24    -244.491
   -142.722     143.717    -241.746
   -120.197     144.523    -233.496
   -115.842    -67.3488    0.964233
   -132.893    -35.2857     45.4213
   -125.385    -35.0089     48.1707
   -117.876    -34.6911     50.9201
   -102.875    -33.3246     56.4033
    685.973     291.648     68.7187
    693.488     291.486     71.4765
    700.993     291.947     74.2224
   -34.6668    -130.845    -53.6498
    566.435     296.201   -0.740906
    573.957     295.776     2.02271
    581.469     295.772     4.77753
    588.974     296.244     7.52325
    596.479     296.628     10.2706
    603.993      296.68     13.0251
    611.498     297.075     15.7723
    626.513     297.665     21.2704
    634.027     297.703     24.0251
   -188.522     128.964    -139.044
   -52.7858    -154.943    -25.8914
     430.08     336.591     136.201
    142.839     321.439     14.0261
    150.348     321.635     16.7772
    153.005     296.294    -58.6094
   -200.525     112.777    -151.754
   -146.554    -147.898    -26.2828
   -139.028    -148.757    -23.5115
   -133.799    -132.242    -38.8549
    548.533     303.732     1.11627
    556.042     303.894     3.86798
    563.552     304.064     6.61945
    571.071     303.766     9.38068
     586.08     304.682     14.8726
    608.613     305.046     23.1306
    616.124     305.107     25.8841
   -192.515     127.566    -174.576
    -156.51     145.253    -204.213
       -149     145.411    -201.461
   -141.478     144.801    -198.694
   -189.058     174.508    -233.576
   -27.9583    -82.7669     -51.821
   -187.771     128.531    -164.328
   -102.457    -164.852    -52.4992
   -94.9472    -164.716     -49.747
   -87.4383    -164.513    -46.9961
    -79.925    -164.455    -44.2418
   -72.4156    -164.287    -41.4903
   -64.9092     -163.93    -38.7423
   -57.4086    -163.225    -36.0012
   -189.496     111.603    -181.781
     353.45     368.482     226.985
     170.65     304.292    -60.7672
   -77.1746    -164.347    -51.7557
   -69.6682    -163.994    -49.0077
   -62.1569    -163.933    -46.2541
   -54.6488    -163.682    -43.5041
    398.148      359.96     175.315
   -266.482    -13.2814     13.1872
    -243.95    -12.8993     21.4449
     320.79     359.834     223.643
    328.297      360.19     226.391
    539.465    -124.077     216.445
   -151.427     94.8462    -261.339
   -143.921     95.3606    -258.593
    132.188     344.536     18.3381
    139.694     344.939     21.0853
    162.227     345.249     29.3442
   -183.639     255.175    -207.083
   -130.138    -35.3966     37.9097
   -122.631    -35.1198     40.6592
   -115.122    -34.7999     43.4085
    277.993     343.544     225.207
   -31.9142    -130.825    -61.1638
    618.885     304.573     18.3826
   -181.193    -158.219    -47.3722
   -143.652    -156.831    -33.6243
   -68.5667    -154.351    -6.12292
    322.554     343.392     173.377
   -94.8749    -124.518    -75.8113
   -165.398     151.891    -250.168
   -157.884     151.832    -247.412
   -150.373     151.992     -244.66
   -142.866     152.322    -241.911
   -135.351     152.194    -239.154
   -127.844     152.481    -236.405
    636.027     298.184     41.7943
    643.543      297.95     44.5535
    651.049     298.299     47.3016
    666.055     299.537      52.788
    109.658     -243.04    -161.163
    162.205    -240.469    -141.928
    169.713     -240.17    -139.179
   -161.957     110.735    -256.887
    150.211     329.825     16.6194
    157.724     329.819     19.3745
    167.891      304.62    -53.2599
    997.251    -36.4911     263.865
     406.76     369.867      220.95
    585.938     313.182     14.7089
   -245.691    -28.9946     3.97577
   -158.284    -60.3005    -23.2125
   -192.672     136.955    -174.757
   -185.167     137.367     -172.01
   -177.654     137.427    -169.256
   -170.136     137.132    -166.495
   -139.177    -139.804    -23.6839
    640.783     298.383      52.059
    678.333     299.148     65.8188
    693.344     300.088     71.3109
    700.852     300.363     74.0604
    708.377     299.633     76.8292
    715.895     299.396     79.5893
    400.275     352.976     193.229
    407.781     353.341     195.977
   -47.2734    -155.374    -40.9086
    -180.41     137.658    -161.749
   -172.887     137.043    -158.982
    614.631     -81.842     217.891
   -141.604     152.333    -198.839
   -112.659     -124.22    -73.8155
   -37.5567     -122.61    -46.2966
   -113.137     -140.05    -48.2178
   -117.621    -156.622    -58.1679
   -110.115    -156.165    -55.4212
   -50.0291    -155.169    -33.4008
   -244.088    -4.64453     21.2859
    539.343    -116.776     216.305
      319.8     343.491     180.887
   -193.296     129.709    -149.326
   -185.779      129.55    -146.567
   -131.217     265.217    -187.991
    303.148     351.698     225.802
   -131.583    -100.165    -46.9843
    728.157     299.994     92.5991
    177.767     327.949    -58.4678
    185.267     328.715    -55.7277
    192.781     328.626    -52.9709
    200.297      328.45    -50.2126
    207.795     329.368    -47.4754
    215.308     329.335    -44.7198
    222.824     329.125    -41.9608
   -175.901     166.159    -245.684
   -168.393     166.387    -242.934
   -160.888     166.848    -240.188
   -153.382     167.311    -237.441
   -145.878     167.803    -234.696
   -138.366     167.832    -231.942
    150.088     337.223      16.477
    157.584     338.204      19.213
   -128.776     -147.93    -28.2861
   -68.6891    -147.024     -6.2641
    354.326     360.571     201.845
    384.364     361.301      212.85
   -189.778     128.475    -182.105
     741.46    -104.233     222.084
   -165.514     158.856    -250.302
    -158.01     159.364    -247.557
    -127.97     160.001     -236.55
   -110.042    -116.141    -81.4828
    397.518     353.241     200.737
    522.999      304.78     93.9979
     732.77     308.777     102.696
   -134.336    -100.099    -39.4738
    530.767     302.963     3.13263
     538.28     303.022     5.88696
    545.785     303.426     8.63397
    553.286     304.109     11.3755
    560.807     303.582     14.1404
    568.314     304.047      16.887
    628.398     305.131     38.9057
    578.303     320.541     11.8124
    593.325     320.663     17.3195
    -154.58     118.808    -254.288
   -147.076     119.425    -251.544
   -139.568     119.686    -248.795
    525.753      304.67     86.4882
    528.014      302.94     10.6467
    535.523     303.254     13.3962
    543.029     303.667      16.143
    558.054     303.621     21.6535
    565.558     304.223     24.3974
    633.144     305.969      49.158
    648.158     306.581     54.6558
    693.218     307.628     71.1657
    700.727      307.82     73.9167
    109.516    -234.527    -161.327
    117.021    -234.057    -158.581
    124.524    -233.471    -155.838
     132.03     -233.09     -153.09
    722.251     324.012      107.16
    392.629     360.872     190.321
   -139.304    -132.229    -23.8297
    186.286     312.241    -80.7007
    536.761     304.722     56.4383
   -158.403    -53.1738    -23.3499
   -173.001     143.864    -159.113
   -170.388     152.205    -166.786
    614.524    -75.4809     217.768
    -251.73     2.98337     18.3836
    -236.71     3.39374     23.8859
   -103.131    -17.9882     56.1081
    394.767     353.158     208.251
    175.006     328.418    -50.9632
     182.51     328.965    -48.2189
    190.025     328.857    -45.4618
    197.538     328.842    -42.7065
    205.043     329.288    -39.9601
   -112.786    -116.583    -73.9626
    391.748     369.123     215.455
    399.255      369.43     218.204
   -92.3864    -108.711    -83.6293
    523.754     304.138     68.7183
    531.262     304.406      71.468
    138.936       345.7      46.363
   -150.617     166.594    -244.941
   -143.107     166.777     -242.19
   -135.598     166.974    -239.439
   -120.578     167.312    -233.935
   -176.401     271.578    -204.644
   -168.895     272.045    -201.897
   -131.344     272.829    -188.138
   -123.842     273.411    -185.394
   -128.895    -140.809    -28.4233
    741.347     -97.444     221.953
   -182.412     137.238    -179.519
     -174.9     137.332    -176.766
   -167.387     137.337    -174.011
    382.365     360.785     195.082
    389.871     361.128      197.83
     526.51     303.943     61.2103
    534.009     304.723     63.9501
    521.407     -107.39     218.127
    158.613     321.191     -5.7514
   -172.142     137.062    -184.274
   -164.627     136.863    -181.516
   -115.276     -132.29    -66.1483
        521     304.235     76.2302
    528.503      304.78     78.9744
   -133.975      265.58    -180.486
    136.179     345.998      53.869
   -129.395     200.799    -212.043
    183.535     312.182    -73.1878
    196.422     320.042    -85.6097
    203.935     320.041    -82.8547
    211.446     320.097    -80.1009
    218.948     320.756    -77.3586
    226.455     321.107    -74.6105
    725.123     316.873     99.7858
    193.663     320.416    -78.1031
    201.175     320.437    -75.3486
    208.686     320.543    -72.5958
    216.189     321.121     -69.852
      223.7     321.264    -67.0997
   -144.865     151.777    -259.679
   -129.844     151.997    -254.174
   -110.298    -100.792    -81.7784
   -132.677     232.482    -205.141
   -154.468    -123.875    -29.5001
   -139.444     -123.88    -23.9905
    605.725     313.162      30.486
     613.24      313.03     33.2433
    620.753     312.955     35.9996
    658.299     314.132     49.7521
     665.81     314.185     52.5059
    585.688     328.117     14.4213
    565.408     313.169      24.225
    625.501     313.785     46.2527
    530.108     328.851     96.2892
    537.612     329.473     99.0327
   -100.022    -101.324    -86.5263
   -32.4459    -99.0276    -61.7761
    544.141     312.685     59.0397
   -132.101    -69.1783    -47.5811
   -124.592    -68.9485    -44.8307
    532.862     328.766      88.779
    357.081     360.413     194.336
    379.611     360.891     202.591
    387.133     360.318     205.357
    212.431     336.726    -37.3485
    219.938     337.076    -34.6003
    -161.52     280.265    -199.301
   -123.955      280.22    -185.525
   -112.928    -108.097    -74.1259
   -129.044    -131.918    -28.5945
   -155.131     151.785    -254.923
   -147.622     152.084    -252.173
   -140.113     152.285    -249.423
   -132.602     152.386     -246.67
   -125.085     152.112     -243.91
   -117.577     152.463    -241.161
   -128.827    -100.409    -54.4915
   -113.801    -100.369     -48.982
   -134.867    -68.3652    -40.0849
    404.763     369.172     203.185
   -236.974     19.1685     23.5822
    153.989     313.041    -15.8613
    521.292    -100.536     217.995
    538.371     328.546     73.7579
    158.469     329.799    -5.91724
   -122.472     160.408    -251.581
   -114.953     160.128     -248.82
   -186.657      271.04    -199.876
    190.908     320.543    -70.5939
    205.926     320.997    -65.0928
    231.085     328.886    -64.4916
     713.13     300.124      87.087
    720.638     300.414     89.8361
   -129.518     208.164    -212.185
    532.101      329.81     114.052
   -102.913    -93.0897    -79.1713
    565.287     320.448     24.0849
    610.343     321.636     40.5914
    617.856     321.563     43.3475
    655.416     321.931     57.1157
    662.925      322.11      59.867
    670.434     322.288     62.6183
    598.075     321.382     27.5729
   -167.769     160.189    -174.451
   -165.016     160.166    -181.964
    534.855     329.768     106.539
   -155.336     239.668    -213.544
    156.348      336.52    -23.8253
     163.86     336.579    -21.0714
    171.366      337.02     -18.325
    178.877     337.139    -15.5722
    186.387     337.307    -12.8206
    193.895     337.537      -10.07
    201.407     337.638    -7.31696
    208.923     337.437    -4.55829
    535.616     328.674     81.2691
    541.115     329.058     66.2363
    548.639     328.447     69.0035
    593.693     329.747     85.5078
    551.517       320.9     61.6369
   -154.859    -100.535    -29.9496
      169.5     328.516    -35.9415
    192.023     329.459    -27.6949
   -111.179    -92.5483    -56.6462
   -147.738     159.041    -252.307
   -140.236     159.648    -249.564
   -132.721     159.482    -246.806
   -128.956    -92.6513    -54.6409
   -129.174    -124.179    -28.7435
   -154.138     288.082    -196.696
    402.014     369.025       210.7
    590.808     337.659     92.8671
   -37.9484    -99.1825    -46.7477
   -135.314     225.557    -197.494
    158.345     337.247    -6.06061
    180.875     337.721     2.19501
    188.383     338.027     4.94409
    198.294      328.15    -67.9854
    213.313      328.53    -62.4828
    220.825      328.56    -59.7285
