  -153.878    554.283    249.983
  -153.955    562.276    249.613
  -154.085    570.272     249.39
  -154.226    578.268    249.199
  -154.651    602.258    248.626
  -154.726    610.251     248.25
   -154.97    626.242    247.759
  -155.234    642.234    247.324
  -155.465    650.235    247.379
  -155.528    658.227    246.971
  -156.699      722.2    245.549
   -156.83    730.198    245.327
  -240.629    320.599    248.046
  -240.653     328.59    247.529
  -241.144    344.593    247.722
  -241.142    352.582    247.136
  -241.342    368.571    246.521
  -241.475    376.567    246.309
  -241.635    384.564    246.167
  -129.047    586.726    249.554
  -129.159    594.721     249.28
  -129.331    602.719    249.173
  -129.409    610.712    248.806
  -129.957    642.698    247.992
  -130.088    650.693    247.772
  -131.221    714.665    246.243
  -131.452    722.665    246.298
  -77.5801     539.67    251.855
  -77.7572    547.668    251.761
  -77.8875    555.664    251.539
  -78.0331    563.661    251.359
  -78.2679    571.662    251.425
  -78.2651    579.651    250.835
  -78.4895    587.652    250.873
   -78.571    595.645    250.516
  -78.8162    611.636    250.029
  -78.9744    619.633    249.883
   -82.853    299.112    236.905
  -172.049    305.798     247.74
  -172.762     345.78    246.799
  -172.844    353.774    246.442
  -172.924    361.767    246.083
  -173.096    369.765    245.976
  -173.185    377.759    245.639
  -173.288    385.754    245.341
  -34.5469    540.398    250.464
  -34.6911    548.394    250.281
  -35.3488    588.374    249.186
  -37.9932    732.316     246.01
  -303.956    463.542    248.024
  -304.176    471.542     248.05
  -304.329    479.539     247.89
  -304.644    503.523    247.013
    -304.8    511.521    246.863
  -304.952    519.517    246.701
  -245.257    160.469    248.983
  -245.609    168.475    249.373
  -246.105    208.447     247.83
  -246.625    224.452    248.104
  -199.576    705.487    247.673
  -199.635    713.479    247.254
   -199.82    721.477    247.182
  -199.985    729.476    247.056
  -200.051    737.468    246.656
  -200.124    745.461    246.276
  -233.843    360.781     249.89
  -234.413    392.767    249.134
  -234.538    400.763    248.898
  -234.512    408.751    248.244
  -234.653    416.747    248.051
  -234.939     432.74    247.677
   -235.24    448.734    247.343
  -235.357    456.729    247.086
  -235.648    472.723    246.724
  -260.648    448.277    247.038
   -260.79    456.274    246.849
  -260.931     464.27    246.657
  -261.074    472.267    246.468
  -261.216    480.263    246.278
  -261.515    504.247    245.358
   -261.77    512.249    245.481
  -261.933    528.236    244.765
   -178.79    537.823    249.473
  -179.322    561.817    249.195
  -179.577    585.798    248.154
  -179.736    593.796    248.009
  -179.852    601.791    247.748
  -179.994    609.787    247.558
  -180.135    617.784    247.367
  -180.267     625.78    247.148
  -180.389    633.776    246.903
   -180.53    641.772    246.711
  -180.976    665.763    246.196
  -181.118    673.759    246.007
  -181.402    689.751    245.626
  -181.955    721.736    244.823
  -103.969    314.989    247.071
  -103.938    322.977    246.404
  -104.003     330.97        246
  -104.226    338.971    246.034
  -104.357    346.966    245.812
  -104.497    354.963    245.616
  -104.642    362.959    245.434
  -104.708    370.952    245.035
  -105.111    394.941    244.402
  -205.401    345.111    242.976
  -147.463    618.451    251.098
  -147.822    634.449    250.925
  -148.197    666.425    249.631
  -148.296    674.419    249.324
  -148.509    682.419    249.329
  -148.725    690.418    249.343
  -148.791    698.412    248.944
  -149.021    706.413    248.997
  -149.236    714.412    249.008
  -149.539    738.396      248.1
  -143.764    298.125    240.685
  -122.062    618.908    251.423
  -122.166    626.903    251.126
  -122.394    634.904    251.175
  -122.821    658.892    250.606
  -122.963     666.89    250.417
  -123.094    674.886    250.198
  -123.231    682.882    249.993
  -123.374    690.878    249.807
  -123.516    698.876    249.616
  -123.608    706.869    249.288
  -124.058     730.86    248.784
  -124.156    738.854    248.472
  -161.487    297.859    242.651
  -216.783    409.017    246.261
  -216.908    417.013    246.023
  -217.064     425.01    245.874
  -217.241    433.008    245.781
  -217.361    441.003     245.53
  -217.486    448.999    245.292
  -71.2122    603.841    253.101
  -71.6609    627.831    252.593
  -71.8016    635.829      252.4
  -71.9424    643.825    252.206
   -72.074     651.82    251.988
  -72.2023    659.815     251.76
  -72.3096    667.812    251.474
  -72.4489    675.808    251.276
   -72.605    683.804    251.125
  -72.7478      691.8    250.938
  -72.8767    699.798    250.712
   -73.067    707.796    250.655
  -73.2042    715.792    250.452
  -73.3177    723.786    250.183
  -73.5122    731.787    250.138
  -108.287    298.657    236.672
  -75.4593    299.316    239.976
  -27.3878    556.593    253.019
  -27.5397     564.59    252.857
   -27.684    572.586    252.673
  -27.8248    580.583    252.479
  -28.0149    596.571     251.84
  -28.1584    604.568    251.654
  -28.3376    612.566    251.567
  -28.5313    620.565     251.52
  -28.6623    628.561      251.3
  -28.7772    636.557    251.035
  -28.8364    644.549    250.616
  -28.9875    652.545    250.451
  -29.1583    660.543    250.341
  -29.3046    668.541    250.163
  -29.4503    676.537    249.983
  -29.5471    684.531    249.668
  -29.6948    692.527    249.494
  -29.8453    700.526    249.327
  -165.991    393.952    248.102
   -166.17    401.951    248.014
  -166.263    409.945    247.688
  -166.405    417.941    247.498
   -166.53    425.937     247.26
  -166.635    433.932    246.969
  -166.776    441.928    246.777
  -167.021     449.93    246.871
  -167.169    457.926    246.697
  -167.201    465.917    246.205
  -167.309    473.912    245.919
  -70.9194     739.65    242.397
   -197.02     297.33    246.817
  -197.242    305.331    246.849
  -197.384    313.327    246.657
  -197.524    321.323    246.464
  -197.698    329.321    246.361
   -197.86    337.319    246.227
  -198.077    353.309    245.661
  -198.161    361.302    245.312
  -198.419    377.294    244.859
  -198.603    385.293    244.786
  -198.773     393.29    244.673
  -198.914    401.287    244.481
  -173.215    649.969     249.42
  -173.332    657.964    249.163
  -173.739    681.953    248.538
   -173.99    697.946    248.068
  -174.446    713.946    248.163
  -174.665    729.937    247.603
  -174.717    737.928    247.165
  -97.3997     379.15    247.763
  -97.5474    387.147    247.588
  -97.8261     403.14    247.194
  -97.9557    411.136    246.969
  -97.9919    419.127    246.487
  -98.1562    427.125    246.359
  -98.3158    435.122    246.218
  -227.416    424.949    250.972
  -227.805    440.947    250.882
  -228.198    464.935    250.221
  -228.438    480.926    249.718
  -228.579    488.922    249.527
  -228.633    496.914    249.093
  -228.709    504.907     248.72
  -228.942    512.908    248.783
  -229.084    520.905    248.591
  -229.246    528.902    248.456
  -68.1622    315.505     242.15
  -68.4165    331.496    241.688
  -68.5593    339.493      241.5
  -136.341    306.318     243.09
  -154.236     306.06    245.532
   -154.25     314.05    244.988
  -154.553    330.044    244.661
  -154.707    338.041    244.504
  -59.8172    539.934    249.781
  -210.246      457.2    248.204
  -210.377    465.196    247.983
  -210.504    473.192    247.751
  -210.553    481.184    247.306
   -210.69     489.18    247.102
  -210.953    497.183    247.244
  -211.023    505.176    246.856
  -211.164    513.172    246.665
   -211.32    521.169    246.511
  -211.442    529.165    246.268
  -22.5088    708.722    251.974
   -22.621    716.716    251.701
  -22.8461    724.716    251.741
  -160.055    482.113    248.792
  -160.216     490.11    248.657
  -160.295    498.104    248.292
  -160.483    506.102    248.227
  -160.678    514.102    248.186
  -160.784    522.096    247.894
  -160.898    530.091    247.629
  -93.4173    315.041    241.424
  -93.5588    323.037    241.232
  -91.0056     443.32    248.937
  -91.1513    451.317    248.757
  -91.2878    459.313    248.552
  -91.4209    467.309    248.338
  -190.866    369.501    248.072
  -191.518    409.481     246.96
  -191.677    417.478    246.818
  -191.819    425.474    246.629
  -191.891    433.467    246.245
  -192.083    441.466    246.192
  -192.211    449.462    245.964
  -192.352    457.459    245.772
  -192.494    465.455    245.581
  -192.648    473.452    245.426
  -192.791    481.449    245.236
    -192.9    489.444    244.956
  -193.074    497.442    244.853
  -193.442    521.428    244.125
  -166.745    706.146    250.965
  -167.352    746.123    249.732
  -60.5456    307.709    245.187
  -60.8926    323.705    244.981
  -61.1802    347.687    244.029
  -61.3148    355.684    243.818
  -61.4799    363.681    243.692
  -146.998    322.251    247.867
  -147.376    346.238    247.165
   -147.46    354.232    246.814
  -147.583    362.227    246.573
  -147.706    370.223    246.331
  -147.893    378.221    246.265
  -148.106    386.221     246.27
  -148.124    394.212    245.739
  -148.267    402.208    245.549
  -149.027    442.193     244.74
  -149.688    482.173    243.653
  -129.028    314.516    245.806
  -129.144    322.511    245.546
  -129.563      346.5    244.957
   -129.65    354.494    244.616
  -52.5755    548.136    252.689
  -52.6855    556.131    252.411
  -52.7244    564.122    251.936
  -52.8589    572.118    251.726
  -53.0646    580.118    251.711
  -53.2932    588.118     251.76
  -53.4946    596.118    251.734
  -53.5781    604.111    251.383
  -53.5961    612.102    250.851
  -54.7975    676.078    249.511
  -54.8084    684.067    248.959
  -55.3736    716.053    248.191
  -85.8577    307.247    244.619
  -86.2751    331.236    244.025
  -86.3251    339.228    243.581
  -86.4666    347.225     243.39
  -185.695    505.636    247.384
  -185.837    513.633    247.192
   -186.12    529.626    246.809
  -141.022    410.409    248.448
  -141.163    418.406    248.254
  -141.303    426.402    248.059
  -141.443    434.399    247.865
  -141.713    450.391    247.446
  -141.774    458.383    247.033
  -141.971    466.383    246.994
  -142.155    474.381    246.921
  -142.311    490.368    246.186
  -84.0551    475.504    250.903
  -84.1951    483.501    250.708
  -84.3045    491.495    250.428
  -84.4452    499.492    250.234
  -84.5937    507.489    250.062
  -84.6548    515.481    249.649
  -54.1655    371.879      246.4
  -54.3467    379.877    246.318
  -54.4742    387.873    246.088
  -54.5452    395.866    245.702
  -54.6692    403.862    245.463
  -54.8218    411.859    245.302
  -55.0176    419.858    245.261
  -55.0964    427.851    244.896
  -121.915    330.713    248.488
  -122.055    338.709    248.293
  -122.473    362.698    247.701
  -122.637    370.696    247.571
  -122.714    378.689      247.2
  -122.816    386.684    246.901
  -122.893    394.677    246.532
  -123.079    402.676    246.464
   -123.18     410.67    246.159
  -79.2465    355.427    246.358
  -79.3517    363.422    246.066
  -79.4617    371.417    245.788
  -79.5669    379.411    245.496
  -79.6567    387.406    245.162
  -79.8323    395.404    245.065
  -79.9662      403.4    244.853
  -80.0832    411.395    244.593
  -80.5075    435.384    244.019
  -46.3167    620.301    253.655
  -46.4574    628.298    253.462
  -46.5779    636.294    253.212
  -46.6231    644.286    252.755
  -46.7827    652.282    252.614
   -47.049    660.284    252.767
  -47.2469    668.285    252.731
  -47.4732    692.263     251.61
  -47.7276    700.267     251.73
  -47.9095    708.265     251.65
  -48.1867    732.247    250.669
  -135.041    498.568    249.022
  -135.108    506.561    248.626
  -135.223    514.556    248.361
  -135.409    522.555    248.293
  -135.571    530.552    248.157
  -77.3419    523.679    252.361
  -77.4456    531.674    252.065
  -47.8128    436.051    247.688
  -47.9271    444.046    247.422
  -47.9814    452.038     246.99
  -115.995    418.874    249.223
   -116.06    426.867     248.82
  -116.171    434.862    248.545
  -116.283    442.857    248.271
  -116.357     450.85    247.895
  -116.499    458.847    247.705
  -116.611    466.842    247.431
  -116.772    474.839    247.295
  -116.926    482.836    247.136
  -117.061    490.832    246.927
  -40.6837    724.455     254.02
  -72.7974    419.594    247.381
  -72.9911    427.593    247.333
  -73.1555     443.58    246.623
   -73.276    451.576    246.374
  -73.5568    467.569    245.985
   -40.685    460.237    249.748
  -40.7672     468.23    249.392
  -40.9261    476.227    249.249
  -41.1177    484.226    249.196
  -41.2682    492.223     249.03
  -41.3902    500.219    248.784
  -41.4591    508.212    248.393
  -109.853    499.035    249.928
  -109.993    507.031    249.732
  -110.029    515.023    249.248
  -110.105    523.016    248.878
  -66.0866     459.78    249.426
  -34.2019    524.402    250.676
  -34.3957    532.401    250.629
  -102.866    531.218    251.796
  -58.8188    475.969    251.681
  -58.9609    483.966    251.491
   -59.085    491.961    251.252
  -59.1518    499.954    250.854
  -59.2597    507.949     250.57
  -59.4793    515.949    250.594
  -59.6117    523.945    250.378
  -59.7085     531.94    250.063
  -26.7155    516.612    254.073
   1064.84   -472.657    249.262
   1067.57   -473.163    241.749
   1075.09   -473.002     244.47
   930.749   -467.362    243.151
   938.266   -467.013    245.868
   945.791   -466.989    248.593
   953.316   -467.069     251.32
   928.024   -467.194    250.671
   935.542   -466.891    253.389
   943.066   -466.791    256.112
   829.463   -461.182    240.396
   836.984   -461.047    243.118
    844.51   -461.058    245.844
    852.03    -460.86    248.565
   859.548   -460.502    251.281
   867.071   -460.461    254.005
    874.59   -460.138    256.723
   804.186    -462.13    239.767
   811.704   -461.737    242.483
   819.219    -461.23    245.196
   826.746   -461.404    247.925
   834.261   -460.969     250.64
   841.785   -460.848    253.363
   849.306   -460.695    256.084
   1092.85   -472.572    242.387
   1100.37   -472.138    245.102
   1115.41   -471.996    250.549
   1122.93   -471.799     253.27
   1130.46   -471.652    255.991
   973.807   -467.024     241.72
   981.332   -467.029    244.446
   988.848   -466.577     247.16
   996.368   -466.397    249.881
   1003.88   -465.924    252.595
    948.52   -467.397     241.08
   956.048   -467.633     243.81
   1118.14   -472.222    243.031
   1125.66    -472.15    245.755
   960.837   -466.922    254.042
   968.354   -466.515    256.757
   963.567   -467.361    246.529
   971.083   -466.946    249.244
   978.602   -466.553     251.96
   986.115   -465.999    254.672
   1042.15   -466.142    240.931
   1049.67   -465.735    243.647
   1057.18   -465.363    246.363
   685.136   -456.247    239.093
   1016.85   -465.835    240.271
   1082.47   -464.898    247.002
   1089.98   -464.284    249.712
   778.897   -462.335     239.12
   786.418   -462.194    241.842
   793.935    -461.82    244.558
   801.459   -461.871    247.284
   808.982   -461.708    250.006
   816.504   -461.587    252.728
   824.022   -461.313    255.447
   831.541   -461.027    258.165
   999.086   -466.187    242.353
   1006.61   -466.089    245.075
   710.427   -456.048     239.74
   717.946   -455.785    242.459
   725.469   -455.732    245.182
   732.989   -455.534    247.903
   740.511   -455.319    250.624
   748.031   -455.117    253.344
   755.551     -454.9    256.063
    659.84   -456.171     238.44
   667.365   -456.241    241.167
   674.885   -455.953    243.886
   682.409    -455.97    246.611
   689.926   -455.597    249.327
   697.451   -455.657    252.054
   704.976   -455.621    254.779
   712.497   -455.465      257.5
   692.656   -456.032    241.812
    700.18   -456.053    244.538
   707.704   -455.978    247.262
   715.224   -455.726    249.981
   722.741   -455.366    252.697
   730.263   -455.283     255.42
   737.786   -455.128    258.142
   880.047   -460.889    241.692
   887.568   -460.734    244.414
   895.089   -460.565    247.135
   902.609   -460.352    249.855
   910.132   -460.228    252.577
   917.652   -460.036    255.298
   925.167   -459.539    258.011
   512.647   -443.046    244.464
   542.737   -442.681    255.356
   1011.26   -457.587    255.121
   993.494   -457.784      257.2
   634.553   -456.593    237.798
   642.076    -456.44     240.52
   664.637   -455.884    248.682
   672.159   -455.696    251.403
   679.682   -455.623    254.126
   735.713   -455.649    240.382
   743.235   -455.455    243.103
   750.755   -455.236    245.823
   758.275   -455.055    248.544
   765.795   -454.828    251.263
   773.317   -454.627    253.984
   780.837   -454.462    256.705
   854.755    -461.02    241.045
   862.278   -461.025     243.77
     869.8    -460.89    246.492
   877.323   -460.753    249.214
   884.841   -460.426    251.932
   892.358   -460.093    254.649
   899.879   -459.913    257.369
    753.61   -462.816    238.481
   761.125   -462.337    241.195
   768.647   -462.223    243.917
   776.165    -461.81    246.633
   783.686   -461.677    249.355
   791.208   -461.583    252.078
   798.731   -461.524    254.801
   806.249   -461.078    257.516
   687.203    -455.49    256.848
   1107.76   -464.585    247.646
   856.685   -452.519    258.614
   923.101   -460.332    240.258
   897.814   -460.744    239.615
   905.334   -460.554    242.336
   912.857   -460.394    245.058
   920.377   -460.215    247.779
   950.447   -458.732    258.644
   565.942   -442.269    238.225
   573.466   -442.225     240.95
   580.984   -441.908    243.667
   588.501   -441.519    246.383
    596.02   -441.223    249.101
   975.733   -458.228    259.284
   616.648     -448.9    239.687
   624.173   -448.991    242.414
   631.698   -449.028     245.14
   639.223   -449.004    247.865
    646.74   -448.648    250.582
   654.262   -448.535    253.304
   661.785   -448.481    256.028
   1024.24   -458.224    242.814
   1031.75   -457.708    245.527
   1039.28   -457.582    248.249
   545.587   -449.964    248.007
   1097.37   -456.393    252.248
   1104.89   -456.195    254.969
   1112.41   -456.007     257.69
   540.792   -450.329    237.767
   548.316   -450.354    240.492
   497.458   -435.132    238.823
   504.983   -435.126    241.549
   520.027   -434.953    246.995
    527.55   -434.881    249.718
   535.074   -434.806    252.442
   591.232   -441.987    238.869
    598.75   -441.707    241.588
   606.272   -441.497    244.308
   613.791     -441.2    247.026
   621.306   -440.721     249.74
   628.825    -440.49    252.459
   1071.94   -448.872    251.418
      1014   -458.485    247.619
   1021.51   -458.043    250.333
   502.254   -434.736    249.065
   509.775   -434.564    251.786
   517.296   -434.424    254.507
   649.469   -449.062    243.068
   656.989   -448.848    245.788
   1010.98   -441.435    254.734
   1132.91    -456.46    248.104
     603.4   -433.045    251.631
   993.067   -433.645    256.622
   1046.66   -449.418    250.779
   1054.17   -448.807     253.49
   515.371   -443.217    236.944
   537.933   -442.582    245.105
   552.965   -441.725    250.534
   504.833   -426.614    241.345
   555.697   -442.332    243.025
   563.214   -441.929    245.741
   570.736   -441.718    248.461
   578.252   -441.287    251.176
   1119.78   -447.581    260.213
   1028.89   -449.804    252.861
    1036.4   -449.104    255.569
   950.016   -434.351     258.06
   502.101   -426.085    248.858
   509.627   -426.233    251.586
   517.149   -426.114    254.308
   1010.84   -433.761     254.55
   975.163   -425.985    258.512
   1079.31   -440.277    253.938
   610.775   -424.618    254.154
   1061.55   -440.568    256.017
   992.785   -417.729    256.241
   512.208   -418.219    243.869
   522.752   -435.142    239.476
   530.274   -435.052    242.198
   560.349   -433.797     253.07
   567.866   -433.337    255.784
   524.527   -417.873    256.836
   1036.26   -440.868    255.372
     906.4   -403.113    258.735
   1079.17   -432.143    253.743
   635.921   -416.216    254.604
   949.737   -418.582    257.682
   955.841   -338.333    258.485
   610.627   -416.276    253.954
   1010.41   -409.454    253.968
    1061.4   -432.361    255.821
   992.641   -409.585    256.046
   519.579   -409.622    246.388
   552.537    -417.51    249.954
   1035.98   -425.079    254.994
   906.125   -387.575    258.363
   585.205   -409.021    253.128
   635.632   -399.848    254.211
   966.792   -378.195    254.642
   1010.27   -401.701    253.782
    955.55   -321.893    258.092
   931.964   -418.458    259.752
   1061.13   -416.797    255.448
   610.209   -392.609    253.388
   862.782   -371.897    259.407
    519.31   -394.369    246.023
   949.307   -394.263      257.1
   552.401   -409.839    249.771
   668.437   -399.111    257.571
   1078.75   -408.473    253.176
   905.833   -371.064    257.967
   924.307   -410.908    256.846
   1035.69   -408.737    254.603
    627.83   -384.214    251.111
   677.834   -351.178    251.625
     991.8   -362.056    254.907
   1060.98   -408.363    255.246
    966.51   -362.301    254.261
   534.055   -377.197    251.062
   862.642   -363.934    259.217
   660.778   -391.576    254.665
   522.163   -401.813    238.677
   552.256   -401.634    249.574
   559.776   -401.432    252.294
   1086.13   -400.248    255.704
   609.924   -376.501    253.002
   905.698   -363.426    257.784
   924.172   -403.254    256.663
   670.171   -343.296    248.711
   1016.95    -353.62    255.356
   584.777   -384.865     252.55
   518.867   -369.368    245.424
   1028.03   -401.091    251.694
   1060.84   -400.563    255.059
   948.748   -362.658    256.343
    973.89    -354.06    256.789
   998.893   -337.673    257.048
   862.498   -355.834    259.023
   529.547   -393.908    241.213
   552.125   -394.238    249.397
   559.638   -393.612    252.107
   567.155    -393.16    254.822
   1085.98   -392.068    255.508
   652.824   -367.241    251.357
   627.268   -352.437     250.35
    584.64   -377.088    252.364
   1035.41   -393.014    254.226
   669.895    -327.66    248.336
   1024.04   -329.118    257.494
   973.744   -345.796    256.591
   998.748   -329.499    256.853
   518.602   -354.387    245.065
    526.11   -353.499    247.769
   533.659   -354.822    250.526
   529.421   -386.829    241.044
   862.366   -348.356    258.844
   1085.85   -384.289    255.322
   609.218   -336.576    252.045
   645.171   -359.929    248.457
   1060.41   -376.254    254.477
   887.645   -347.506    259.476
   669.749   -319.446     248.14
   930.841   -354.986    258.232
   1023.89    -320.94    257.298
   1027.76   -385.529    251.322
   1035.27   -384.805    254.029
   533.491   -345.291    250.298
    523.26   -346.237     255.12
   521.753   -378.654    238.123
   973.328   -322.248    256.027
    608.93   -320.335    251.656
    904.42   -291.194    256.054
   887.502   -339.379    259.281
   685.495   -358.957    254.536
   693.014   -358.663    257.254
   947.753    -306.42    254.996
   669.474   -303.859    247.766
   525.847   -338.598    247.412
   523.101   -337.277    254.906
   626.553    -312.05    249.383
   1015.95   -297.059    254.001
   536.645   -369.748     243.36
   551.689   -369.577    248.806
    1100.6   -367.716    260.375
   583.789   -328.984    251.211
   990.239   -273.785    252.793
   973.177    -313.73    255.823
   734.516   -270.253    253.714
   749.552   -269.621    259.149
   1034.85   -361.245    253.465
   947.613   -298.514    254.806
      1060   -352.895    253.917
   1067.51   -352.369     256.63
   600.989   -296.711    248.366
   522.976   -330.198    254.736
   678.864   -255.539     241.81
   533.082   -322.195    249.745
   930.412    -330.73    257.651
   669.183   -287.427    247.373
   903.856     -259.3     255.29
   887.221   -323.506    258.901
   626.421   -304.557    249.203
   709.793   -302.633    253.839
   717.309   -302.167    256.553
   528.971   -361.396    240.434
   551.554   -361.923    248.623
   990.098   -265.816    252.602
   1015.68   -281.793    253.635
   1092.95   -360.457    257.476
   1042.23   -352.858     255.99
    583.51   -313.201    250.833
   726.851   -262.375      250.8
   741.882   -261.356    256.226
   1067.37   -344.281    256.436
   965.233   -290.111    252.532
   532.934   -313.815    249.544
   522.816   -321.146    254.519
   774.556   -253.232    259.409
   678.726   -247.745    241.624
   626.273   -296.218    249.004
   694.609   -294.991    248.205
   702.128   -294.633    250.923
   903.564   -242.809    254.895
   886.931   -307.096    258.508
   528.857   -354.917    240.279
   536.385   -355.064    243.008
   558.926   -353.393    251.144
   704.145   -254.732    242.442
   711.662   -254.356    245.158
   719.181   -254.104    247.877
   861.083   -275.807    257.106
   989.953   -257.638    252.406
   947.188   -274.467     254.23
   661.238   -263.725    244.079
   583.364   -304.955    250.636
   643.902   -288.193    246.739
   792.181   -245.096    257.141
    592.76    -256.94    244.687
   965.097   -282.375    252.346
   686.947   -287.183    245.293
   736.813   -246.299    245.617
   744.332   -246.014    248.335
   751.854    -245.89    251.057
   759.371    -245.55    253.774
   766.887   -245.006    256.487
   1015.24   -256.976    253.041
   678.578   -239.389    241.424
   626.135   -288.412    248.817
    1041.8   -328.719    255.412
   696.486   -247.192    239.535
   532.655   -298.029    249.166
   540.172   -297.686    251.883
   528.688   -345.361     240.05
   551.263   -345.491    248.229
   895.906   -235.302     251.99
   661.101   -255.973    243.894
   592.621   -249.112      244.5
   784.374   -229.063    254.032
   886.514   -283.545    257.943
   643.617   -272.055    246.352
   696.348   -239.401    239.349
   625.984   -279.888    248.612
     532.5    -289.26    248.956
   729.009   -230.515    242.513
   972.193   -258.135    254.492
   1066.95   -320.621    255.869
    678.44   -231.575    241.236
   939.243   -250.636    250.935
   989.392   -225.918    251.647
   528.574   -338.902    239.896
   558.652   -337.856    250.771
   852.858    -236.17    253.432
   1041.52    -312.87    255.032
   529.798   -290.436    256.509
    895.77   -227.625    251.806
   1007.29   -233.291    249.749
   921.477   -250.899    253.014
   776.716   -221.493    251.125
   817.604   -252.364    257.967
   843.602   -292.096    259.569
   886.369   -275.364    257.748
   592.336   -232.958    244.113
   721.348   -222.734    239.602
   618.326   -272.274    245.705
   989.247   -217.707     251.45
    529.63   -280.948    256.282
   528.405   -329.363    239.667
   550.987   -329.913    247.856
   852.718   -228.279    253.242
   1007.16   -225.793    249.569
   517.036   -265.861    242.945
   964.386   -242.215    251.385
   971.903   -241.703    254.098
   660.387   -215.625    242.927
   921.339   -243.106    252.827
   678.298   -223.557    241.044
   575.135   -265.093    246.956
   895.481   -211.277    251.414
   939.104   -242.766    250.746
   761.534   -213.944    245.494
   769.052   -213.543     248.21
   1041.09   -288.803    254.456
   592.196   -225.048    243.923
   721.208   -214.871    239.413
   1074.19   -304.234    258.203
   1081.71   -304.105    260.925
   878.426   -251.655    254.455
   835.658   -268.333    256.275
   1007.01   -217.455    249.369
   809.518   -220.549     254.48
   618.048   -256.551    245.328
   921.191   -234.739    252.627
   753.871   -206.083     242.58
   524.267     -249.3    245.273
    528.15   -314.966    239.322
   634.964   -208.202    242.098
   938.959   -234.585     250.55
   852.431   -212.047    252.854
   887.681   -195.674    248.315
   1040.96   -280.964    254.268
      1059   -296.442    252.565
   1074.04   -296.152    258.009
   981.021   -178.007    247.774
   592.046   -216.581     243.72
   835.524   -260.775    256.094
   524.148   -242.577    245.112
   634.825   -200.392    241.911
   844.772   -204.379    249.945
   617.762   -240.385    244.941
   550.558   -305.642    247.275
   558.075   -305.243     249.99
   938.821   -226.802    250.364
   887.545   -187.946     248.13
   520.995   -218.185    252.053
   980.881   -170.102    247.585
   1040.81   -272.841    254.073
   1058.87   -288.991    252.387
   1066.37   -288.066     255.09
   801.296   -181.089     250.81
   523.989   -233.587    244.897
   617.624   -232.598    244.755
   634.678   -192.083    241.712
   912.826    -187.16    248.762
   835.233   -244.326      255.7
   520.834   -209.119    251.836
   869.915   -195.814    250.392
   1006.45   -185.764     248.61
   844.349   -180.489    249.373
   938.537   -210.724    249.979
   955.165   -146.243    246.361
   980.592   -153.713    247.192
   527.555   -281.322    238.516
   550.138   -281.886    246.706
   887.256   -171.631    247.739
   1058.57   -272.501    251.992
    1066.1     -272.7    254.722
    786.11   -173.369    245.174
   801.156   -173.194    250.621
    617.48    -224.43    244.559
   835.095   -236.486    255.512
    566.91   -225.439    243.281
   1040.53   -257.085    253.696
   527.442   -274.931    238.363
   862.111   -180.083     247.29
    844.06   -164.129    248.981
   1058.44   -264.935    251.811
   887.118   -163.844    247.553
   930.732   -194.914    246.874
   954.887   -130.535    245.984
   793.492   -165.336    247.707
   801.014    -165.14    250.428
   583.821   -176.949    240.046
   834.808   -220.263    255.124
   1047.91    -248.95    256.226
   886.967    -155.31    247.348
   534.811   -266.069    240.877
   549.852   -265.722    246.319
    972.37   -114.242    243.521
   954.744   -122.415     245.79
   843.926    -156.55    248.799
   609.395   -192.677    241.073
   904.173   -123.319    244.508
   930.595   -187.193    246.689
   785.832   -157.606    244.797
   793.353   -157.474    247.518
   1013.26   -145.496    250.371
   1035.84   -145.788    258.554
   752.607   -134.639    240.869
    760.12   -134.042     243.58
   827.145   -212.492    252.212
   843.777   -148.155    248.598
   861.265   -132.237    246.143
   972.233   -106.516    243.337
   534.531   -250.239    240.498
    549.57   -249.755    245.936
   1047.62   -232.459    255.831
   1062.68   -233.018    261.295
   954.322   -98.5617    245.219
   793.205   -149.134    247.319
   767.502   -125.879     246.11
   1013.12    -137.32    250.175
   861.119   -123.991    245.946
   1039.96   -224.827    252.923
   558.679   -185.561      239.6
   878.604   -107.817    243.486
   549.426   -241.636    245.742
   979.466   -90.0807    245.668
   1017.09   -90.0764    259.294
   793.069   -141.404    247.134
   759.835   -117.932    243.194
   1028.04   -129.992    255.449
   954.036    -82.441    244.833
   835.409   -100.406    244.729
   853.319   -108.353    242.846
   929.313   -114.734    244.954
   878.464   -99.9496    243.297
   1054.88   -217.491    258.198
   818.492   -148.688    247.959
   792.782   -125.226    246.746
   752.164   -109.563    240.268
   767.216   -109.721    245.723
   1005.31   -121.395    247.068
   1009.14   -66.2847    255.999
    853.18   -100.504    242.658
   533.679   -202.061    239.344
   541.196   -201.693     242.06
   878.322   -91.9045    243.105
   929.179   -107.158    244.772
   1039.41   -193.396     252.17
   767.079   -101.987    245.538
   1005.18   -113.737    246.885
   1020.23    -113.75    252.335
   533.542   -194.329    239.158
   978.755   -49.8655    244.705
   986.281   -50.0441    247.434
   1001.34   -50.4911    252.896
   810.268   -109.045    244.284
   998.332   -34.3652    260.033
   670.187    352.602    245.016
   928.892   -90.9179    244.383
   759.417   -94.2958    242.628
   766.931   -93.6329    245.338
   852.753   -76.3506     242.08
   792.365   -101.662    246.182
   1012.42   -97.5366    249.222
   986.134   -41.7349    247.235
   810.129   -101.197    244.096
   533.247   -177.672     238.76
   670.029    361.581    244.801
   953.049   -26.6024    243.495
   792.214   -93.0987    245.977
   759.269    -85.915    242.427
   928.611   -75.0182    244.002
    997.23    -89.761    243.585
   1004.75   -89.5996    246.307
   330.952    362.041    241.118
   993.524   -34.1774    249.779
   952.896    -17.935    243.287
   928.469   -66.9792     243.81
   996.955   -74.2216    243.213
   1004.49   -74.6129    245.948
   809.843   -85.0532    243.709
   430.531    452.309    241.562
   990.385   -10.5755    256.737
   928.329   -59.0652     243.62
   809.705    -77.225    243.522
   565.073     -121.6    240.794
   455.534    468.799    241.818
   337.473     418.73    242.485
   430.388    460.385    241.369
   393.022    563.637    243.042
   985.589   -10.9057    246.497
   355.524    402.901    240.789
   783.992   -53.5853    242.305
    809.56   -69.0613    243.326
   455.392    476.874    241.624
    928.18   -50.6577    243.419
   337.331    426.761    242.292
   411.917    500.079    242.491
   400.398    571.974    245.567
   688.239    336.722    243.324
   695.761    336.812    246.047
   480.967     460.99    242.657
   355.378    411.129    240.592
   455.252    484.773    241.435
    809.28   -53.2291    242.947
   400.257    579.997    245.375
   564.642   -97.2007    240.209
       500    389.539    242.295
   418.874    532.145    244.448
   687.807    361.151    242.739
   695.329    361.243    245.462
   336.908    450.684     241.72
   487.917    493.413    244.606
   437.063    508.375    242.944
   400.117    587.865    245.187
   809.136   -45.0878    242.752
   418.729    540.306    244.253
   758.144   -22.3036    240.903
   336.764    458.828    241.525
   462.066    524.894    243.199
   386.066    531.559    241.085
   713.525    337.067    243.967
   336.627     466.58    241.339
    418.59    548.201    244.064
   757.998   -14.0396    240.705
   495.012    517.652     246.75
   444.159    532.669    245.088
   506.671    437.707    243.866
   406.789    636.148    246.756
   720.906    345.251    246.497
   468.738    573.012    244.772
   720.759    353.582    246.297
   443.591    564.755     244.32
   513.628    469.885    245.821
   425.121    604.309    245.445
    388.05    690.866    247.518
   406.079    676.261    245.795
   563.943   -57.6816    239.263
   468.452    589.226    244.383
   443.453    572.581    244.132
   432.498    612.607    247.971
   513.202    493.966    245.245
   342.595    554.559    241.957
   405.958    683.133     245.63
   413.478    683.331    248.351
   420.998    683.529    251.071
   428.518    683.727    253.791
    436.04    683.926    256.512
   468.314    596.978    244.198
   432.356     620.63    247.779
   349.969    563.056    244.479
   450.549    596.761    246.278
   525.144    397.998    242.745
   513.062    501.869    245.055
    500.27    645.737    246.407
   720.352    376.559    245.747
   735.393    376.956    251.188
   432.215    628.573    247.589
   543.763    349.984     241.82
   349.826    571.135    244.285
   474.987    645.188    245.769
   507.374    669.573    248.562
   529.929     670.48    256.715
   543.613    358.492    241.616
   449.839    636.896    245.317
   367.735    563.224    242.399
   519.875    542.059    246.818
   349.405    594.924    243.715
   474.842    653.424    245.571
   531.674    454.202    244.124
   514.763    677.185    251.105
   522.283    677.384    253.825
   537.325     677.78    259.266
   544.845    677.978    261.987
   449.701    644.707     245.13
   423.838    676.816    243.708
   431.357    677.118    246.426
   356.643      611.1    246.053
   374.833    587.402    244.546
    474.56    669.313    245.191
   543.334    374.245    241.239
   519.448    566.177     246.24
   538.911    470.392    246.461
   423.722    683.397    243.551
   431.242    683.595    246.271
   438.764    683.794    248.992
   453.804     684.19    254.432
   456.936    661.018    247.464
   481.957    676.525    247.743
   489.477    676.723    250.464
   496.997    676.921    253.184
   504.519    677.119    255.905
   512.039    677.317    258.625
   519.559    677.516    261.345
   538.769    478.408    246.269
    519.17    581.915    245.863
   456.791    669.231    247.267
   783.383    370.017     260.18
   550.431    398.501    243.383
   363.315    659.216    247.625
   381.505    635.576    246.117
    456.67    676.062    247.104
    464.19     676.26    249.824
   471.712    676.458    252.545
   479.232    676.657    255.265
   486.752    676.855    257.986
   538.629     486.32     246.08
   550.288    406.545    243.191
   738.117    376.824    243.665
   745.637    377.022    246.386
    775.72    377.815    257.268
   363.026    675.542    247.234
   525.979    622.265    247.622
   857.853     332.25    245.267
   865.369    332.675    247.982
   872.889     332.86    250.703
   550.148    414.469    243.001
   355.357    683.796    244.312
   373.124    684.032    242.231
   380.643    684.316     244.95
   518.176    638.094    244.517
   525.695    638.353    247.236
   550.004    422.597    242.806
   872.774    339.353    250.547
   355.243    690.206    244.158
   362.763    690.404    246.878
    373.01     690.47    242.077
    380.53    690.668    244.798
   544.878    558.528    247.076
   518.036    646.009    244.328
   857.584    347.459    244.903
   549.865    430.448    242.618
   569.185    342.796    242.644
   544.734    566.663    246.881
    807.55     316.03    244.353
   525.277     661.96    246.671
   532.793    662.412    249.385
   864.971    355.148    247.444
   557.102    446.668    244.955
   847.881    316.687    250.438
   569.042    350.866    242.451
   814.938     323.69    246.894
   544.453    582.548      246.5
   540.191    669.652    251.937
   547.711     669.85    254.658
   555.231    670.048    257.378
   562.751    670.247    260.098
   570.273    670.445    262.819
   556.956    454.907    244.757
   840.225    324.149    247.534
   847.763    323.367    250.278
   568.903    358.746    242.262
   779.399    323.651    251.042
   786.923    323.749    253.765
   544.167     598.69    246.114
   556.679    470.592    244.382
   832.559      332.2    244.616
     847.6    332.554    250.058
   855.116    333.091    252.771
   544.028    606.534    245.926
   807.019    346.028    243.634
   543.883    614.732    245.729
    563.49    510.853    246.142
   832.165    354.487    244.082
   839.685    354.685    246.802
   575.998    382.941    244.408
   814.398    354.222    246.163
   594.613    335.239    243.478
   563.345    519.077    245.945
   782.135    322.831    243.537
   789.656    323.118    246.256
   543.463     638.52     245.16
   619.616    351.677    243.736
   575.572    407.047     243.83
    594.47     343.28    243.285
   601.994    343.266     246.01
   763.534    369.879    244.484
   778.568    370.633    249.916
   786.107    369.885     252.66
   563.067    534.815    245.568
   575.433    414.872    243.643
    543.32    646.589    244.966
    619.46    360.517    243.524
    594.33    351.194    243.095
   601.844    351.785    245.806
   770.924    377.485    247.027
   562.924    542.864    245.375
    543.18    654.495    244.777
   594.046     367.26    242.711
    781.58    354.248    242.785
   789.114     353.76    245.523
   562.786    550.702    245.188
   550.563    662.451    247.312
   558.081    662.764    250.029
   593.909    375.035    242.524
   581.823    479.101     244.83
   581.679     487.21    244.636
   565.475    670.115    252.578
   572.997    670.313    255.299
   580.517    670.511    258.019
   588.037    670.709     260.74
   581.398    503.116    244.255
   562.214    583.006    244.414
   600.437    431.291    243.902
   581.115    519.117    243.872
   600.151    447.454    243.515
   561.935    598.766    244.037
   580.975     527.04    243.682
   600.011    455.365    243.325
   568.608    646.869    245.609
   606.685      503.4      244.9
   587.365    591.142    244.872
   575.989    655.026     248.14
   613.607    655.178    261.762
   606.539    511.668    244.702
   583.383    662.383    250.689
   590.903    662.581    253.409
   598.423     662.78    256.129
     609.5    615.849    252.456
   609.348    624.479    252.249
   605.978    543.384    243.942
   594.177    631.364    246.633
    605.69    559.662    243.552
   605.551    567.526    243.364
   601.413    647.624    248.969
  -263.023    47.7723    235.729
  -237.877    56.1571    236.179
  -255.636       55.6    238.267
   -248.12    55.9926    240.983
  -230.499     64.427    238.706
   295.843    337.691    245.847
  -255.787    64.1057    238.063
    237.47     352.39    241.467
   305.957    345.134     240.87
  -238.162    72.2862    235.792
  -230.644    72.5969     238.51
   280.656    345.525    240.209
   288.175    345.804    242.927
   295.693    346.164    245.644
   303.219    346.059    248.372
   -255.92    71.6205    237.883
  -240.885    72.3117    243.317
   255.102    360.214    239.205
   244.851    360.484    243.998
   252.368    360.937    246.713
   313.327     353.85    243.387
    320.84    354.473    246.097
  -238.443    88.1716    235.412
   303.068     354.63    248.166
   262.467    369.227    241.714
    252.21    369.834      246.5
  -241.312    96.4796    242.738
  -238.587    96.3027    235.217
   313.177    362.347    243.183
   320.689    362.985    245.893
   269.844    377.549     244.24
    287.89    361.928    242.541
   244.551    377.454    243.592
  -256.777    120.114    236.722
   244.417    385.028     243.41
   269.419    401.589    243.664
   -82.884    299.017    236.998
  -176.506    297.296    237.157
  -168.987    297.579    239.876
  -256.911    127.695     236.54
   287.615     377.51    242.168
   161.473    358.914    239.354
   168.984    359.701    242.061
   269.281    409.361    243.478
   143.697    359.245    241.421
   18.1185    308.839     239.37
   125.651    374.869     243.12
  -75.5044    307.183    239.528
  -67.9856    307.488    242.246
    -280.5    31.2642    238.198
  -265.461    31.7158    243.637
  -257.942    32.1064    246.353
  -161.608    305.838    242.404
  -313.161    22.3802    235.033
  -305.648    22.9938    237.744
  -32.3126    299.975    238.278
  -257.061    136.126    236.338
  -249.544    136.495    239.055
  -242.016    136.296    241.784
  -100.788    306.581     238.89
  -93.2681    306.838    241.609
  -7.16248    308.104    238.735
  0.351685    308.673    241.447
  -57.5994    299.539    237.638
  -50.0767    299.623    240.361
   136.044    366.528    238.522
   151.078    367.328    243.953
    25.499    316.958      241.9
  -68.1292    315.607    242.051
  -305.794    31.2662    237.545
  -280.651    39.7801    237.994
  -265.617    40.5511    243.425
  -143.837    305.708    240.333
   268.994    425.602    243.089
  -257.195    143.727    236.156
  -249.678    144.093    238.873
  -93.4134    315.053    241.412
   311.339    466.202    240.696
  -17.4134    308.407    243.526
   -154.37    322.001    244.742
   176.223    375.764    244.401
   -338.45    22.0629    234.388
  -330.932    22.3901    237.106
  -323.412    22.7193    239.823
   212.044    359.875    240.635
   219.559    360.421    243.348
  -363.883    29.8522    233.551
  -68.2681    323.462    241.863
  -305.929    38.8753    237.363
  -288.299    46.8409    235.099
  -280.776    46.8835    237.824
  -273.258    47.1513    240.542
  -265.741    47.5541    243.258
  -201.784    296.343    236.528
  -194.259    296.416    239.252
  -186.751    297.279    241.956
  -513.466   -93.3397    232.591
  -126.072    306.105    238.249
  -118.556    306.502    240.965
  -242.309    152.822    241.389
  -154.514     330.16    244.546
   118.136    374.331    240.408
  -148.405    410.102    245.357
  -136.462    314.102    242.857
   268.858    433.313    242.904
  -25.0754    316.198    240.614
  -17.5629    316.863    243.323
   186.761    359.257    239.998
   194.275     359.85    242.709
  -42.8372     315.71    242.701
   226.938     368.59    245.877
    132.18    431.145    244.497
   7.45001    332.738    243.595
   14.9769    332.589    246.324
    22.496    332.866    249.043
    251.23    425.256    245.172
   -323.56    31.1042    239.623
   311.056    482.252    240.311
  -68.4106    331.515     241.67
  -258.378    56.7452    245.763
  -406.929    28.8814    234.995
  -399.414    29.4113    237.708
  -356.503    38.1118    236.079
  -179.374    305.583    244.482
   -506.09   -85.0104    235.117
  -111.177    314.676    243.494
  -151.217    297.608    237.802
  -93.6923    330.821    241.034
  -298.692    55.0654      239.7
  -249.962    160.147    238.488
   293.576    465.841    242.777
  -129.225    330.461    245.191
   32.4572    348.959    243.859
   201.648     368.37    245.231
   183.176    408.058    246.353
  -154.794    345.965    244.168
  -381.647    29.5898    235.631
  -68.6923    347.439    241.289
   92.8563     373.54    239.774
   100.378    373.692    242.496
    107.89    374.369    245.205
   157.466    431.573    245.139
  -258.506    63.9592     245.59
  -323.838    46.7665    239.248
   250.805    449.286    244.597
   234.172    385.016    248.209
  -399.699    45.5076    237.322
  -179.518    313.747    244.287
   29.5903     357.17    251.186
  -148.975    442.353    244.584
    39.835    357.219    246.386
  -129.512    346.658    244.803
  -86.5997    355.219    243.176
  -523.576   -100.992    237.573
  -250.242    175.956    238.109
  -549.007    -93.324    236.739
  -374.409    45.7369    237.969
   67.5711    373.053    239.134
   75.0887    373.419     241.85
   82.6048    373.879    244.565
    90.121    374.322    247.279
  -258.658    72.5795    245.384
   42.5588    357.086    238.866
   234.021    393.536    248.005
   275.385    489.687    244.279
  -17.9781    340.336    242.761
  -61.5966    371.653    243.434
  -149.112    450.076    244.399
  -36.1691    364.115    244.266
   182.609    440.123    245.585
  -538.761   -93.3192    231.938
  -523.729   -92.3456    237.366
  -129.791    362.442    244.425
  -257.909    184.108    235.189
  -242.866    184.302    240.635
   47.0707    373.536    248.721
    157.04    455.647    244.563
  -349.971     94.169    237.461
  -316.741    70.9074    241.394
    317.87    522.361    242.076
  -400.118    69.2027    236.755
  -556.664   -85.8087    233.834
   14.1146    381.339    245.157
   21.6274    381.973    247.867
   29.1464    382.266    250.585
  -292.292    118.709    240.902
  -258.788    79.9163    245.208
  -104.789    378.889    244.681
   11.9677    348.856    253.458
   299.964    530.096    243.964
  -227.074    296.239    235.879
  -212.038     296.89    241.313
  -204.512    296.759    244.041
    89.692    398.572    246.698
   49.7996    373.113    241.208
   57.3136    373.682    243.919
   64.8323    373.988    246.637
    72.356    374.012    249.362
   79.8752    374.297     252.08
  -531.383   -85.1047    234.467
     275.1    505.748    243.895
   46.9228    381.896    248.521
  -549.291    -77.283    236.354
    182.47    447.973    245.397
  -250.528    192.171    237.721
   249.816    505.172    243.258
   119.532    566.914    246.044
   156.901    463.526    244.374
  -180.078    345.356     243.53
   13.9783    389.047    244.972
   317.586    538.422    241.691
  -657.096    -127.88    232.235
  -649.581   -127.377    234.948
   -149.68    482.198     243.63
  -350.257    110.312    237.075
