  -112.989     -129.9    46.7503
  -197.503    48.3573    174.406
  -23.3134   -387.012   -41.8597
  -23.4294   -379.018   -42.1411
  -23.6463   -371.018    -42.141
  -23.8314   -363.017   -42.2296
  -23.9777   -355.022   -42.4264
  -24.1014   -347.027   -42.6865
  -24.2491   -339.031   -42.8792
   -24.457   -323.043   -43.5095
  -24.6945   -315.042   -43.4517
  -24.6756   -283.094   -45.9244
   -55.591   -162.714   -16.1523
  -101.409   -136.595    86.1453
  -101.475   -128.604    85.7253
  -30.3177   -251.465   -56.3036
  -210.677    56.4899    186.848
   -129.78   -146.845    23.6978
   -120.79   -40.8896    85.5561
  -168.913   -57.2398    102.514
  -124.508   -139.181     8.3858
  -124.726   -131.181    8.38983
  -124.955    -123.18    8.42255
  -125.095   -115.185    8.20856
  -125.325   -107.182    8.24518
  -126.449   -51.2031    7.14667
  -144.451   -412.862   -33.9089
   -144.54    -404.87   -34.2673
  -144.767   -396.867   -34.2384
  -144.872   -388.874   -34.5507
   -145.16   -380.869   -34.3521
  -145.254   -372.877   -34.6951
  -146.427   -292.931   -37.4725
  -146.584   -284.934   -37.6383
  -146.874   -268.941   -38.0393
  -147.103    -260.94   -38.0065
  -199.979    32.5365    182.525
  -200.221    48.5249    181.989
  -127.096   -42.5061    32.0455
  -162.757   -31.6519    154.622
  -162.896   -23.6566    154.405
  -163.034   -15.6613    154.185
  -93.4043   -137.089    63.8155
  -93.2917   -129.109    62.8963
  -93.8074   -97.1282    61.9153
  -93.9373   -89.1334    61.6724
   -94.072   -81.1383    61.4431
  -94.2059   -73.1412    61.2119
  -94.3419   -65.1461    60.9861
  -94.8709   -41.1512    60.6472
  -169.567   -421.305   -34.3409
  -170.223   -381.329   -35.5359
  -170.444   -373.329   -35.5242
  -170.546   -365.333   -35.8442
  -170.816    -357.33   -35.6957
   -171.57   -309.361   -37.2241
  -171.889   -285.379   -38.1474
   -172.44   -261.383    -38.425
   152.319    338.391    29.9402
  -120.063   -122.814    18.4741
  -120.211   -114.818    18.2814
  -97.8275   -444.344   -43.0549
  -97.8682   -436.355   -43.5463
  -98.1624   -420.361   -43.9357
   -98.277   -412.367   -44.2208
  -98.4158   -404.372   -44.4387
  -98.6844    -388.38   -44.8994
  -98.8267   -380.384   -45.1075
  -98.9758   -372.388   -45.2963
  -99.1174   -364.391   -45.5064
  -99.2845   -356.394   -45.6452
  -152.353   -47.6005    150.514
   -152.48   -39.6038    150.263
  -152.612   -31.6089    150.026
  -152.758   -23.6132    149.829
  -152.903   -15.6175    149.629
  -153.346    8.37219    149.049
  -153.442    16.3649    148.712
  -61.0734   -162.376  -0.857971
  -172.096    32.8221    175.834
  -72.6026   -443.894   -42.3221
  -72.7227   -427.911   -43.1971
  -73.4077   -387.933   -44.3112
  -73.5471   -379.938    -44.527
  -75.2377    -299.96   -45.8608
  -75.3883   -291.964   -46.0457
  -75.5118   -283.969    -46.306
  -193.471   -58.3992    76.2214
  -138.417   -49.1284    87.9321
  -166.283   -57.4019    95.1778
  -190.338    64.5594    176.908
  -116.138    -420.59   -41.1933
  -116.089   -412.606   -41.9333
  -116.331   -396.615   -42.4692
  -116.683    -380.62   -42.6985
  -118.874   -260.675   -45.6608
  -119.194   -252.669   -45.3717
  -119.294   -244.676   -45.6974
  -137.045   -147.734   -3.43762
  -137.814   -99.7619   -4.92169
  -171.546   -57.0774    109.859
  -174.356   -64.8909    118.304
  -174.539   -24.9438    115.788
  -174.667   -16.9492    115.542
  -174.803   -8.95197    115.314
  -15.1434   -434.772   -37.3227
  -15.2629   -426.776   -37.5944
  -15.3022   -418.787   -38.0898
  -15.3298   -410.798   -38.6178
  -15.5519   -386.822   -39.8129
  -15.6328    -378.83   -40.1925
  -15.7584   -370.836   -40.4469
  -15.9069   -362.838   -40.6379
    -15.98   -354.847   -41.0387
  -16.1859   -346.847   -41.0695
  -16.3226   -338.852    -41.293
  -16.6085   -322.859   -41.7055
  -16.7514   -314.863   -41.9117
  -16.8957   -306.867   -42.1141
  -17.0331    -298.87   -42.3358
  -17.7301   -282.854   -41.6013
  -17.8715   -258.883   -43.0219
  -18.0959   -242.895   -43.6058
  -105.139   -161.664    50.9694
  -105.653   -121.697    49.3774
  -107.126   -41.7322    47.4366
  -157.712     -47.27    165.463
  -157.838   -39.2735    165.209
  -157.984   -31.2777    165.012
  -89.2506   -88.7539    72.3029
  -89.3134   -80.7632    71.8731
  -89.4508   -72.7659    71.6514
  -89.7119   -56.7763    71.1697
  -122.592   -138.631    26.7388
  -122.681   -130.639    26.3843
  -124.545   -42.6634    24.9294
  -177.019    40.4442    165.266
  -155.195   -39.4364    157.838
  -155.691   -7.45673    156.801
  -156.055    8.53918    156.605
  -156.202     16.535     156.41
    159.51    338.616    33.5794
  -147.621   -7.95435    134.286
   -172.33   -32.3983    133.931
  -172.507   -24.4007     133.82
   -172.61   -16.4076    133.502
  -172.761   -8.40942    133.316
    -172.9  -0.414093    133.101
   -173.04    7.58127    132.887
  -47.3375   -451.434   -41.1025
  -47.5203   -435.449   -41.8022
  -47.6385   -427.453   -42.0779
  -47.6412   -419.466   -42.6752
  -49.8068   -307.512   -45.1036
  -50.0865   -299.506   -44.9282
  -50.2413   -291.509   -45.1017
  -50.3516   -283.516   -45.3985
  -50.4262   -275.524   -45.7956
  -195.707    64.8905    191.887
  -162.325   -413.097   -31.4517
  -162.541   -405.097   -31.4536
  -162.675     -397.1   -31.6849
  -162.813   -389.104   -31.9047
  -164.198   -301.158   -34.6956
  -164.249   -293.168   -35.1581
  -117.945   -130.263    36.8696
  -128.243   -161.577    68.0193
  -130.335   -41.6379    64.7795
  -108.167   -444.375   -37.9103
  -108.234   -436.384   -38.3284
  -108.335   -428.389   -38.6523
  -109.699   -364.406   -39.6854
  -109.841   -356.411   -39.8954
  -110.053   -348.411   -39.9089
  -110.257   -340.412   -39.9435
  -110.362   -332.417   -40.2577
  -110.484   -324.422   -40.5198
   -110.62   -316.427   -40.7454
  -110.802   -308.429   -40.8436
  -110.865   -300.436   -41.2734
  -110.955   -292.444   -41.6282
  -111.483   -252.476   -43.1796
  -111.658   -244.478   -43.2953
  -86.4276   -96.9147    65.0325
   -86.478   -88.9248    64.5681
  -86.6568    -80.927    64.4621
   -86.788   -72.9301    64.2228
  -86.9261   -64.9348    64.0032
  -87.0034   -56.9432     63.614
  -87.2092   -48.9438    63.5831
  -91.0315    -396.17   -41.9448
  -92.1758   -348.177   -42.3822
  -92.4957   -332.182   -42.7001
  -92.6552   -324.185     -42.86
  -92.8306   -316.187   -42.9756
    -92.95   -308.193   -43.2474
   -93.113   -300.194   -43.3978
  -93.1571   -292.205   -43.8797
  -139.249   -276.731   -35.0074
  -114.131   -42.6371    19.5765
  -19.6915   -443.147   -47.7289
  -21.2493    -355.19   -50.0378
  -22.5203   -251.278   -54.3572
  -110.382   -106.767     13.956
  -138.877   -48.4315    112.919
  -185.006    32.9499    188.151
   -185.29    48.9409    187.735
  -185.437    56.9388     187.54
  -185.571    64.9338    187.309
  -65.0635   -435.704   -40.2599
  -65.4627   -411.717   -40.9615
  -67.2148   -331.735   -42.1235
  -67.4737   -323.732    -42.006
  -67.5974   -315.738   -42.2661
  -67.8184   -307.738   -42.2546
  -68.1088   -275.771   -43.8641
  -130.971   -40.9301    90.2592
  -145.562   -7.41296    152.243
   -145.64   0.578613    151.855
  -97.8972   -153.456    53.8604
  -98.5793   -97.5023    51.5283
  -98.7112   -89.5074    51.2913
  -98.9847   -73.5149    50.8441
  -99.1918   -65.5153    50.8172
  -99.2553   -57.5247    50.3892
   -99.392   -49.5295    50.1657
  -182.296    32.7828    180.591
  -182.448    40.7789     180.41
  -182.591    48.7745    180.204
  -182.723    56.7714    179.967
  -178.597   -57.9795    82.1268
  -8.03192   -402.593   -35.8765
  -8.08783     -394.6   -36.3256
  -9.19122   -322.647   -38.6924
  -9.33765   -314.652    -38.889
  -9.62964   -290.671   -39.8893
  -9.88928   -274.682   -40.3751
  -10.4861   -250.683   -40.5251
  -147.518   -47.2302    160.725
  -147.791   -31.2379    160.276
  -147.928   -23.2426    160.053
  -148.129   -15.2435    160.008
  -148.268   -7.24603    159.792
  -129.631   -139.534   -1.02209
  -129.773   -131.538    -1.2301
  -81.6516   -162.444     9.1452
  -150.225   -47.0634    168.277
  -150.422   -39.0625    168.219
  -150.505   -31.0705    167.847
  -115.236   -122.443    28.7088
  -115.565   -114.436    29.0211
  -116.589   -42.4856    26.4324
  -139.471   -47.7265    138.276
  -140.435    8.24442    136.728
  -166.758   -56.7043      120.2
   -169.25      24.66      168.5
  -169.385     32.655    168.273
  -100.583   -452.161   -34.7628
  -101.765    -388.19   -36.3067
  -102.046   -380.186   -36.1274
  -102.211   -372.189    -36.272
  -103.571   -284.244   -39.1322
  -103.786   -268.256   -39.7412
  -103.978   -260.257   -39.8106
  -104.131   -252.261   -39.9898
  -104.347   -244.261   -39.9916
   142.764    313.682    11.0106
  -110.137   -138.062     39.397
  -110.394   -122.073    38.9056
  -111.861   -42.1086    36.9474
   179.267    704.847    235.644
  -102.756   -98.5816    15.7818
   -102.87   -90.5877    15.4965
  -102.951   -82.5959    15.1149
  -103.088   -74.5987    14.8934
  -103.252   -66.6017     14.747
  -103.358   -58.6085    14.4366
  -103.513   -50.6122    14.2631
  -104.027   -42.5917    15.0938
   138.178    305.309   0.710144
  -106.231   -50.4445    21.8476
  -106.423   -42.4438    21.7763
   -41.679    -347.28   -41.0478
  -41.8164   -339.285   -41.2695
  -42.0084   -331.284   -41.3389
  -42.1777   -323.287   -41.4718
  -42.2964   -315.293   -41.7455
  -43.0269   -267.323   -43.3376
   -57.428    -451.48   -36.6519
  -57.8616   -419.504   -37.8623
  -58.7125   -387.503   -37.9085
   -58.825   -379.509   -38.1994
  -59.0439   -371.509   -38.1938
  -59.2456   -363.507   -38.2361
  -59.4266    -355.51   -38.3363
  -59.5923   -347.512   -38.4789
  -59.7325   -339.517   -38.6929
  -60.7855   -267.565   -41.2004
  -113.342   -161.159    73.8542
  -113.383   -145.182    72.7575
  -113.508   -137.186     72.501
  -158.252    15.9929    138.426
  -12.4433   -434.938   -44.8552
   -12.549   -426.943   -45.1654
  -12.6697   -410.962   -46.0385
  -13.3158   -355.011    -48.471
  -90.5903   -145.251    56.5704
  -91.3434   -81.3066    53.8316
  -92.1515   -41.3189    53.0606
   132.746    313.631    15.2567
   132.346    337.618    14.5571
  -84.3974   -363.962   -39.1732
  -84.5756   -355.964   -39.2811
  -85.0031   -339.964   -39.2983
  -85.8614       -284   -41.1389
  -170.793   -57.7924     84.054
  -122.097   -123.357     0.4505
  -122.277   -115.359   0.348328
  -122.425   -107.361    0.15564
  -141.553   -48.2664    120.385
  -108.104   -114.227    31.9108
  -0.83136   -378.406   -34.0801
  -0.95282   -370.412   -34.3461
  -1.10272   -362.414   -34.5332
  -1.24359   -354.418   -34.7451
  -1.39062   -346.422   -34.9399
  -1.39337   -338.435   -35.5373
  -1.66412    -330.43    -35.387
   -2.1344   -306.441   -35.8899
  -2.39691   -298.436   -35.7628
  -2.52045   -290.441   -36.0228
  -2.68201   -274.458   -36.7822
  -74.1016   -154.255    11.1767
   150.243    329.864    12.6375
  -104.219   -49.9002    39.9329
  -93.4045   -435.962   -32.2997
  -93.5474   -427.964   -32.5061
  -93.8321    -419.96    -32.317
  -93.9287   -411.967   -32.6524
  -94.1505   -403.967   -32.6389
  -94.2623   -395.971   -32.9319
  -96.2365   -276.041   -36.4993
  -95.1251    -106.37    18.7982
  -96.1629   -42.4082    16.8535
   139.957    321.842    18.2347
   139.771    329.841    18.1498
  -97.8598   -106.202    26.4272
  -97.9066   -98.2122    25.9529
  -98.0351   -90.2174    25.7062
  -98.1656   -82.2227    25.4654
  -98.3106   -74.2249    25.2648
  -98.5854   -58.2344    24.8216
   -32.152    -459.02   -35.4567
  -33.4006   -387.058   -37.4186
  -33.6561   -379.056   -37.3107
  -33.7714   -371.062    -37.594
  -33.9523   -363.062   -37.6942
  -34.1436   -355.063   -37.7656
  -35.7283   -259.118   -40.6046
  -35.7006   -251.133   -41.2869
  -35.8463   -243.137   -41.4854
  -106.051   -144.966    76.0012
  -106.167   -128.983    75.1147
  -106.325   -120.987    74.9527
   -107.68   -41.0297    72.6804
  -83.7156    -97.082    57.4671
  -83.7591   -89.0925    56.9835
  -83.9518   -81.0939     56.916
  -84.0159   -73.1011    56.4899
  -84.2115   -65.1023    56.4302
  -84.2888   -57.1107     56.041
  -84.4897   -49.1115    55.9965
  -149.904   -31.7759     142.47
  -150.326   -7.78757    141.834
  -150.571    8.20099    141.306
  -7.63068   -274.821   -46.6757
   -7.7757   -258.836   -47.4814
   298.449     690.88    236.178
  -50.9395   -403.289    -34.684
  -51.1812   -395.285   -34.6146
  -53.4744   -259.361   -38.5021
  -53.5849   -251.367   -38.7988
  -53.7375   -243.371   -38.9782
   145.599    313.507    3.10016
  -75.3242   -451.713   -34.1246
  -76.1783   -403.738   -35.3718
  -76.4464   -395.733    -35.229
   -76.561   -387.739   -35.5142
  -76.7924   -379.738   -35.4736
  -76.9767    -371.74   -35.5644
  -78.4212   -275.803   -38.7946
  -78.6008   -267.803   -38.8987
  -78.6236   -259.815   -39.4402
   -78.752    -251.82   -39.6869
  -79.0303   -243.817   -39.5154
  -144.905   -8.12189    126.709
  -156.163   -57.3576    90.6445
  -86.8322   -162.125    23.5974
  -115.484   -91.1468    3.27997
  -115.593   -83.1534    2.97931
  -115.702   -75.1577    2.67853
   153.763    305.016   -19.0676
  -85.7739   -451.737   -28.6782
  -85.7986   -443.749   -29.2139
   157.712    322.084    16.1068
   157.835    330.064    15.1585
   157.568    338.068    15.2973
   147.496     338.02    19.6959
  -94.9311   -161.626     46.191
  -95.0609   -153.631    45.9482
  -95.6679   -113.657    44.6164
  -95.8115    -105.66     44.412
  -95.8702   -97.6694    43.9706
       -96   -89.6746    43.7278
  -96.1304   -81.6797     43.487
  -96.2693   -73.6824    43.2691
  -96.4039   -65.6873    43.0399
  -96.5372   -57.6923    42.8065
  -100.424   -114.033    34.1852
  -100.712   -98.0392    33.7803
  -100.759   -90.0495    33.3062
  -100.967   -82.0499    33.2792
  -101.033    -74.057    32.8591
  -101.175   -66.0616    32.6509
  -101.302   -58.0669    32.4005
  -101.453   -50.0708    32.2172
  -42.6004   -451.057   -30.6128
  -42.7751    -443.06   -30.7303
  -42.9561   -435.062   -30.8304
  -43.1315   -427.062   -30.9462
  -43.2225    -419.07   -31.2971
  -43.4498   -411.069    -31.268
  -98.8024   -136.756    78.8749
  -98.7548   -128.772    78.1368
  -98.9052   -120.776    77.9516
  -100.279   -40.8177    75.7333
   300.509    337.976    209.652
   300.373    345.972    209.424
  -142.222   -39.5681    145.344
  -142.939   0.412018    144.319
  -89.5661   -161.956    31.2243
  -90.9892   -66.0212    27.9343
  -24.9689   -458.795   -31.7966
  -25.0566   -450.802   -32.1569
  -25.1172   -442.812   -32.5925
  -25.2471   -434.817   -32.8354
  -25.4536   -426.816   -32.8643
  -25.5302   -418.824   -33.2554
  -25.7263   -410.825   -33.3134
  -25.8693    -402.83   -33.5195
  -26.0364   -394.831   -33.6583
  0.623047   -306.611   -43.5823
  0.476013   -298.613   -43.7772
 -0.363708   -250.638   -45.0645
 -0.505249   -242.643   -45.2746
   155.787    321.535   -2.22528
   155.523    329.538   -2.09229
  -136.779   -47.8925    130.767
  -67.8917   -451.503   -31.1602
  -68.3371   -427.513   -31.7327
  -68.4385    -419.52   -32.0546
  -68.6423   -411.521   -32.0912
   160.388    321.919    8.64166
   160.311    329.911    8.25043
   165.023    330.289    18.8072
  -108.155   -74.9547    5.32489
  -18.0491   -402.644   -31.6365
   307.546    338.211    213.719
   307.564    346.197    213.065
   -87.725   -145.428    48.5772
  -88.1841    -113.45     47.438
  -88.3589   -105.451    47.3205
  -88.4432    -97.459    46.9504
  -89.2524   -49.4864    45.5782
   -65.765   -73.5581     29.274
   -92.316   -161.787    38.8954
  -93.0582   -105.829    36.7311
   162.239    338.448     25.968
  -134.814   -39.3564    148.378
   -82.092   -153.762    33.4677
   404.648    354.882     178.63
   393.299    363.569    209.685
   396.338    355.394    201.813
  -60.6262   -443.296   -28.3348
  -60.7796     -435.3    -28.512
   165.819    321.584   -6.51007
   165.691    337.567   -7.36389
   308.436   -354.764     49.962
   308.236   -346.765    49.9156
  -85.0325   -153.581     41.671
  -10.8137   -402.421   -28.1164
  -100.103   -90.7583    7.77704
  -100.231   -82.7636    7.52838
  -75.5829   -97.5835    34.7791
  -75.6802   -89.5907    34.4455
  -75.8086    -81.596    34.1988
  -76.5012   -41.6153     33.106
  -81.0424     -89.26    49.4047
  -81.9498   -41.2794     48.306
  -82.0831   -33.2844    48.0728
   357.857    363.081    213.756
    414.94    346.929    174.223
   403.418    355.626    205.761
   403.288    363.622     205.52
   316.228   -362.565    52.5312
   401.731    355.062    186.769
  -78.3941   -89.4232    42.0168
  -78.5176   -81.4289    41.7564
   -78.653   -73.4318    41.5289
  -79.2311    -41.447    40.7214
   180.908    337.965   -2.41412
   455.986    331.097    155.727
   419.727    347.302    184.566
   432.914     339.17    172.084
  -68.4782   -73.3907    36.8432
   398.976    355.232    194.454
   20.5089    350.496    254.844
   20.4246    358.489    254.474
  -76.7416   -162.079    19.1467
  -76.8887   -154.083     18.952
   430.149     339.34    179.797
   461.017    331.455    165.394
   416.649    355.479     192.55
     416.5    363.475    192.359
   463.562     323.31    158.896
   458.148    323.644        174
   458.224    331.627    173.184
   331.381    -370.15    58.2636
   427.259    339.518     187.86
   27.8288    366.688    256.915
   195.719    338.389    3.66901
   451.148    330.727    145.526
   468.412     323.68    169.067
   406.169    355.457    198.087
   406.057    363.451    197.794
   455.324    331.806    181.274
   466.087    315.836    176.158
   465.638    323.851    176.804
   442.935    389.149    235.299
    479.02     307.72    164.388
   459.793    340.186      191.9
   459.791    348.173    191.302
   459.663    356.168    191.054
   459.566    364.162     190.72
   346.573   -385.723    64.4931
   346.626    -377.74    63.7394
   305.483   -346.596    57.5948
   476.487    307.876    171.454
   442.037    339.944    194.038
     441.9     347.94    193.814
   441.825    355.932    193.417
   441.698    363.927    193.169
   473.732    308.046    179.139
   473.491    324.035    178.601
   493.851    308.142    170.413
   10.1617     366.44    258.799
   341.687    326.113    47.9799
   353.617   -377.502    67.9376
   470.887    308.221    187.076
   470.503    324.219    186.937
   470.355    332.216    186.744
   483.889    316.075    173.898
   313.228   -354.391     60.295
   438.701    330.157    132.846
   333.739    326.603    70.1516
   17.5788    366.651    261.808
    496.91    307.953    161.878
   477.979    324.427    189.782
   356.689    334.512    52.9258
   501.699    308.326    172.217
   321.137   -370.186     63.142
   320.937   -362.187    63.0938
   361.838   -393.316    69.9151
   361.629   -377.328    69.2888
   496.058    308.674    187.955
   336.424    326.438    62.6614
    504.09    308.179    165.548
   485.657    308.647    193.271
   485.208    340.624    192.104
   485.114    348.617    191.759
   484.979    356.613    191.532
   484.874    364.606     191.22
   521.263    309.125    188.741
   521.208    317.116     188.29
   601.066    573.132    135.754
   600.945    581.126    135.488
   600.883    589.118    135.054
   600.672    597.118    135.039
   607.923    639.949    230.286
   516.707    316.725    177.148
   520.866    317.805    212.944
   520.617    325.808    213.033
   520.548      333.8     212.62
    520.42    341.795    212.374
   520.282    349.791    212.154
   520.281    357.778    211.551
   520.166    365.772    211.265
   502.874    348.859     189.62
   336.364   -377.775    68.6682
   335.588   -361.754    69.6241
   377.067   -400.905    75.4354
   376.374   -384.887    76.1581
   356.102    343.204    77.6591
   626.564    47.7417    223.053
   542.163   -408.344    279.687
    358.83    343.036    70.0474
    616.95    552.201    235.462
   616.814    560.197    235.237
   616.678    568.192    235.011
   616.542    576.188    234.786
   616.406    584.184     234.56
    616.27    592.179    234.335
    616.19    600.171    233.953
   615.998    608.171    233.883
   615.862    616.166    233.658
   615.725    632.149    232.831
   528.143    318.025    216.346
   343.478   -361.572    71.3127
   523.966    308.959    181.203
   515.319    365.403    201.088
   651.673    56.1855    223.505
   651.588    64.1775    223.137
   634.112     39.958    226.306
   633.919    47.9567     226.24
   417.124    336.133    73.9337
   518.829    309.275    195.532
   518.142    349.254    194.425
   413.732    344.998     106.49
   384.377   -384.712    77.5325
   371.342    343.601    82.5434
   353.908    334.684    60.6819
   511.175   -442.392    226.357
   374.067    343.433    74.9413
   549.559   -408.131    282.756
   641.433     40.175    229.582
   523.328    325.641    205.471
   523.264    333.632    205.043
   523.169    341.625    204.704
   523.085    349.618    204.334
   522.996     357.61    203.976
    530.01   -432.893    268.009
   529.738    -424.89    268.163
   658.969    64.3906    226.244
    658.94    72.3813    225.719
   658.581     88.377    225.511
   378.547    343.825    86.1457
   526.093    309.496    198.968
   526.019    317.488    198.567
    529.19    316.624    166.022
   661.363    88.2054    217.751
   399.688   -408.282    84.0377
   338.222   -369.235      86.58
   310.587   -354.229    67.6619
   374.114   -384.748     82.463
   666.594    56.6022    229.282
   545.841   -320.712    262.772
   545.455   -432.509    272.321
   545.267   -424.511     272.24
   545.209    -416.52    271.796
   545.067   -408.523    271.586
   544.153   -368.531    271.112
   544.133   -360.543    270.563
   543.774   -344.545    270.355
   684.838    72.1212    200.875
   545.538    334.264     214.01
    345.93   -377.028    89.3825
   318.206   -362.019    70.7132
   317.659   -353.996    71.6324
   669.124    80.4086     220.41
   668.499    88.4338    221.547
   414.823   -415.865    89.8201
   408.975    344.623    96.0609
   612.455    664.968    263.233
   381.738   -400.525    86.1059
   419.234    336.671    91.7451
   530.849   -265.881    229.257
   530.144   -249.862    230.015
   555.276   -440.433    269.225
   555.318   -432.449    268.504
   555.185   -424.454    268.271
   554.851   -416.447    268.597
   554.967   -408.465    267.668
   554.577   -400.454    268.151
    554.45   -392.459    267.899
    554.31   -384.464    267.685
   554.082   -368.474    267.111
   553.909   -360.477    266.989
   553.777   -352.482    266.754
   553.623   -344.484    266.579
   553.492   -336.489    266.338
   704.844    64.9041    216.774
   552.671   -432.286    275.888
   552.476   -424.287    275.827
   552.192   -416.283    276.014
   552.118   -408.289    275.614
   551.333   -368.305     274.78
   551.201    -360.31    274.545
   550.951   -344.319    274.032
   426.742    336.877    94.5012
   691.992    72.3484    204.618
   676.858    64.6245    223.742
   676.817    72.6158    223.253
   421.777   -391.665    92.3069
   361.197    -384.62    94.7968
   679.314    80.4486    215.681
   333.435   -369.608    76.2333
   332.852   -361.585    77.2569
   389.344   -392.339    87.9833
   712.278    73.1028    219.128
   684.578    48.8433    227.115
   683.956    88.8175    225.826
   385.744    -383.46     121.12
   429.632   -391.481    94.0936
   340.745   -361.404    78.9357
   461.775   -444.694    174.563
   383.884   -392.002    103.214
   686.418    80.6789    219.561
   720.202    41.3335    223.141
   719.389    73.3328    222.988
   358.216   -376.449    102.508
   403.929   -391.901    94.6948
   615.922   -80.7353    215.022
   393.446   -391.255     123.94
   348.656   -377.196    81.7787
   532.466   -202.083    219.907
   530.403   -114.095    219.007
   530.718   -106.128    217.525
   529.542   -42.1571    215.966
   738.279    41.5557    220.115
   468.548   -443.774    203.068
   468.443   -435.781    202.754
    438.34   -455.248    98.3415
   438.208   -447.251    98.1022
   438.096   -439.257    97.8094
   437.753   -431.249    98.1622
   437.651   -423.256    97.8422
   395.381   -382.717    141.638
   469.036   -436.486    177.401
   468.835   -428.487    177.358
   365.931   -384.243    105.292
   694.922    40.8871    222.562
   694.222    88.8528    220.885
   727.777    49.5215    225.103
   727.688    57.5138    224.748
   727.294    73.5136    224.634
   412.116   -407.711    96.7668
   411.791   -399.704    97.0694
   411.874   -391.723     96.233
   624.006   -80.5653     216.17
   406.663   -399.388    111.373
   408.118   -390.823    130.413
   444.495   -399.048    100.633
   538.603   -137.895    221.652
    745.67     49.755     222.59
   745.525    57.7508    222.389
    745.39    65.7459    222.164
   483.816   -444.048    184.173
   483.256   -443.344    209.439
   483.111   -435.349     209.24
   402.894   -382.512    144.381
   771.072    42.2072    223.434
   770.959     50.201    223.145
   770.811    58.1969    222.954
   702.006    73.0679    224.085
   701.825    81.0658    223.985
   617.489   -32.2409    230.719
   616.962   -16.2328    230.981
   617.077   -8.25311    230.054
   616.925  -0.256958    229.875
   616.746    7.74292    229.769
   363.875   -384.785    87.3278
   745.512    73.0588    197.519
   595.602    460.978    135.767
   595.305    484.958    134.782
   594.372    540.927     133.15
   781.172    50.2395    218.351
   372.928   -376.019    108.867
   532.399   -50.3201    208.599
   532.267   -42.3252    208.364
   617.495    520.218    236.364
   617.359    528.214    236.138
   617.222     536.21    235.913
   617.086    544.205    235.688
   606.526    358.475     184.26
   413.683   -399.153    115.494
   681.706   -87.4312    221.712
    530.01   -217.905    227.968
   529.398   -185.918    227.257
   528.356   -145.918    227.139
   527.822   -121.923    226.813
   527.685   -113.928     226.59
   527.528   -105.931    226.424
   434.597   -399.106    104.548
   546.433   -137.709    223.508
   545.798   -113.708    223.464
   544.499   -49.7292    222.248
   544.333   -41.7323    222.107
    709.82    41.3053    228.404
   709.404    73.2801    227.146
   709.006    89.2781    227.046
   788.848    42.4478    221.244
   788.283    58.4562    221.608
   452.337   -398.863    102.461
   541.055    -122.07    213.603
    498.79   -442.966    213.502
   498.633   -434.969    213.336
   725.399   -110.746    220.139
   724.765   -86.7443    220.091
    785.66    50.6311     229.53
   785.432     58.632    229.563
   620.624     -72.37        225
   619.513   -8.40338    223.258
   388.655   -391.628    113.605
   655.199   -159.689    230.002
   654.831   -151.677    230.422
   431.182   -398.227    137.772
    683.71   -47.6189    213.097
   760.241    73.4873    203.828
    536.09   -153.713    229.873
   536.301    -145.74    228.678
   536.151   -137.743    228.493
   535.568   -105.758    227.699
   534.531   -73.7452    228.173
   533.973   -41.7618    227.307
   379.084   -392.375    92.9041
   689.786    -87.261    222.872
   688.681   -55.2438    223.534
   688.527   -47.2476    223.358
   459.706   -445.234     156.63
    459.55   -437.238    156.462
   459.231   -429.232    156.745
   421.627   -398.974     117.03
   420.936   -382.956    117.747
   466.495   -444.316    185.095
   466.393   -436.323    184.775
   443.245   -454.882    108.354
   443.078   -446.883    108.218
   442.888   -438.884    108.142
   442.684   -430.885    108.106
   442.526   -422.888    107.942
   442.482   -414.897    107.458
   442.056   -406.884    108.042
   506.942   -443.468     190.76
   672.675   -151.441    228.048
   672.462   -143.441    228.036
   553.512    -129.49    226.854
    552.39   -49.5475    223.932
   552.248   -41.5519    223.724
   551.323   -1.55902    223.281
   551.112    14.4296    222.658
   789.531     2.4679    222.364
   732.859    -86.575    221.211
   628.694   -72.1993    226.185
   627.434   -8.22345    224.859
   795.577    58.6748     224.96
   543.435   -137.524    231.872
   542.807   -105.536    231.203
   542.478   -89.5405    230.912
   542.296   -81.5426    230.813
   541.827   -57.5513    230.306
   541.683   -49.5555    230.104
   541.953   -41.5855    228.745
   541.366   -33.5625    229.778
   541.231   -25.5654    229.551
   541.506   -17.5956    228.177
   548.855   -121.883    215.542
   547.092   -41.9023    214.411
   546.433    6.06296    212.618
     471.3   -443.944    195.389
     471.1   -435.945    195.343
   395.763   -391.398    117.475
   661.413   -95.5055    231.527
   660.699   -39.5501    229.283
   660.078   -15.5494      229.2
   659.934   -7.55383    228.996
   659.896   0.435333    228.499
   660.022    8.41632    227.541
   466.525       -437    160.709
   466.575   -421.029    159.358
   454.861   -445.604    146.447
    691.77   -47.4475    214.313
   697.825   -135.013    227.774
   696.744   -55.0726     224.74
   740.837   -110.361    224.475
   464.346   -436.865    166.786
   464.151   -428.866    166.726
   473.638   -428.115    187.659
   554.949   -41.7185     216.19
   428.711   -398.743    120.968
   810.837    51.0839    230.398
   561.718   -169.264    230.684
   561.363   -129.306     228.65
   558.979   -1.36273    225.621
   796.917    10.6695    224.852
   796.746    18.6669    224.725
   796.651    26.6595    224.384
   796.505    34.6552    224.185
   680.537   -159.246     230.42
   679.849   -135.241    230.525
    679.72   -127.247    230.278
   678.988   -87.2635    229.297
   678.472   -55.2827    228.314
   677.974   -23.3029    227.285
    677.56    8.67184     226.02
   677.305    32.6478    224.916
   668.428   -55.3317    232.635
   668.287   -47.3362    232.423
   667.903    -31.339    232.287
   667.832   -23.3458     231.88
   667.274    8.63773    231.014
   464.817   -406.282     115.65
   403.673   -391.217     119.11
    462.23   -437.403    148.985
   461.989   -429.402    149.053
   461.786   -421.402    149.014
   478.406   -443.714    199.265
   742.969   -102.505    217.923
   642.947   -39.7922    231.407
   642.794    -31.796     231.23
   642.502   -15.8024    230.835
   642.089   0.196564    230.775
   481.126   -443.882    191.677
   705.125   -126.808    230.509
   703.252   -14.8695    227.263
   474.578   -436.828     161.94
   566.519   -25.1195    230.106
    566.54   -9.14725    228.838
   566.421   -1.15311    228.566
   565.851    14.8576    228.946
   746.754   -38.1723    226.223
   746.207    17.7729    223.513
   746.066    25.7683    223.301
   745.943    33.7626    223.039
   814.142    42.8934    221.782
   706.587   -62.9998    221.589
   436.626   -398.562    122.585
   472.038   -444.658    169.631
   471.364   -420.656    169.696
   418.891   -398.805    124.663
   418.399   -390.788     125.43
   687.088   -87.0947    230.397
    686.36   -63.0894    230.615
   685.967   -47.0897    230.499
   685.849   -39.0957    230.224
   685.628   -31.0952    230.237
   685.476   -15.1104    229.449
   685.355   -7.11609    229.181
   685.213   0.879517    228.975
   684.785     32.855    227.749
   750.926   -102.328    219.423
   711.681   -78.6191    232.288
   711.577   -70.6259    231.972
   711.464   -54.6434     231.08
   711.146   -38.6502    230.756
   710.997   -30.6542    230.567
   710.825   -22.6549    230.442
   710.497   -6.66116    230.145
   710.409    1.33105    229.787
   469.105   -413.196    151.696
   468.962   -405.201     151.49
   481.641   -436.595    165.938
   439.375   -398.732    114.916
   586.992   -168.817    231.282
   493.992   -443.338     203.19
   489.191    -443.71    192.884
   754.396   -37.9751    228.603
   445.148   -454.331    126.751
   479.158   -444.429    173.468
   722.204   -94.5752    227.841
   722.209   -62.6264    225.407
   828.686    43.3333    228.607
   791.794    26.2906    214.236
   476.444   -404.994    154.315
   591.813   -8.70056    229.431
   591.521    7.29309    229.036
   591.366    15.2894    228.863
   489.656   -436.421    167.275
   763.962    18.0147    221.379
   448.083   -454.512    118.565
    447.95   -446.515     118.33
   447.787   -438.518    118.179
    447.65   -430.523    117.956
   447.357   -422.518     118.17
   450.139    -453.97    136.529
   449.862   -445.964    136.694
   449.686   -437.967    136.581
    496.17   -443.472    197.113
    452.78   -446.144    128.555
   452.644   -438.149    128.329
   452.413   -430.148     128.37
   451.839    -406.15    128.154
   730.152   -118.357    231.183
   729.889   -102.367    230.706
   729.648    -86.377     230.17
   729.002   -38.4146    228.341
    728.88   -30.4203    228.075
   728.662   -14.4313    227.473
   728.385    -6.4274    227.643
   728.149    17.5495    226.486
   728.015    25.5445    226.253
    728.03    33.5303    225.608
   798.894    26.5211    218.125
     487.1    -444.25    175.012
   771.342     26.215    223.891
   771.211    34.2098    223.652
    454.78   -414.318    120.554
   454.571   -406.319    120.535
   457.124    -429.77    138.926
   457.012   -421.776    138.633
   456.805   -413.775    138.604
   456.606   -405.776    138.556
   496.762   -444.177    171.763
   531.336   -442.299    217.511
   529.617   -354.334    215.651
   737.975   -102.198    231.855
   736.872   -62.1937    231.905
   736.678   -54.1929    231.841
    736.58   -46.2001    231.512
   736.228    -22.216    230.677
   735.861    9.75577    229.282
   494.099   -444.013    179.191
   504.234   -443.301    198.315
   459.765   -421.946    130.952
   459.544   -413.944    130.964
   814.823    2.91345    222.908
   814.684    10.9108     222.69
   814.534    18.9069    222.505
   814.407    26.9014    222.252
   814.271    34.8966    222.029
    779.16    10.4277     226.99
   502.149   -443.841    180.432
   504.863   -444.008    172.861
    539.22   -442.117    219.217
   537.785    -354.17    216.563
   766.297    322.055    215.582
   792.509    363.717    257.932
   517.457   -346.932    201.571
   836.527    35.5295    231.044
   526.415   -442.664    207.539
   524.777   -354.704    205.455
    524.65   -346.708    205.205
   534.397   -442.488    208.971
   532.931   -354.539    206.407
   532.812   -346.543    206.133
   591.251   -474.601    171.286
   598.583   -474.384    174.537
   725.044   -437.533    269.632
   724.784   -421.544    269.146
    724.53   -405.552    268.647
   724.204   -389.559    268.346
    724.12   -381.567    267.975
   791.397   -324.457     265.66
   790.735   -292.467    265.088
   732.298   -429.325    272.497
   732.015   -413.334    272.077
   731.702   -397.339    271.737
   707.221   -437.771    271.955
   707.126   -429.778    271.616
   741.488   -365.325    265.716
   740.702   -317.354     264.28
   750.207    -437.08    270.536
    750.06   -429.084    270.343
   749.591   -405.093    269.837
   748.751   -349.131    267.944
   748.724   -341.141    267.414
   748.371   -325.146    267.188
   755.916   -332.929    270.446
   767.445   -404.857    267.433
    766.92   -380.864    267.083
   766.827   -372.869    266.738
   766.703   -364.875    266.477
   766.582   -356.881    266.212
   766.472   -348.887    265.913
   766.376   -340.892    265.576
   766.301   -332.901     265.18
   766.109   -324.902    265.111
   766.069   -316.913    264.616
   765.803   -308.908    264.752
   765.699   -300.915    264.438
   765.496   -292.916      264.4
   765.143   -276.918    264.174
  -874.137   -397.378    103.849
  -874.198   -389.387    103.414
  -874.434   -381.386    103.466
  -875.417   -333.401    102.579
  -875.523   -317.421    101.664
  -875.814   -301.427    101.266
   -875.96   -293.431    101.068
  -876.203   -285.429    101.141
  -836.204    -198.03     53.999
  -860.955    497.721    46.7126
  -864.415   -373.346      98.61
  -864.821   -341.372    97.3244
  -864.971   -333.376    97.1357
   -865.12    -325.38    96.9467
  -865.319   -317.381    96.8967
  -865.365    -309.39    96.4206
  -866.038   -277.399     95.879
  -878.509    558.724    233.654
  -878.532    566.713    233.112
  -878.608    574.705    232.721
  -878.789    582.704    232.621
  -878.824    590.693    232.114
   -879.02    598.693    232.054
  -879.162    606.688    231.846
  -879.331    614.686    231.711
  -879.411    622.679     231.33
  -879.673    630.682    231.457
  -879.807    638.677    231.225
  -879.886    646.669     230.84
  -879.926     654.66    230.349
  -880.121    662.659    230.285
  -880.194     670.65    229.884
  -880.375    678.648    229.786
  -880.508    694.632    228.945
  -880.675    702.629    228.807
  -880.834    710.626    228.647
  -880.975    718.623    228.435
   -881.17    726.622    228.373
  -872.122    342.674    232.171
  -872.595    374.653    231.071
  -874.035    454.614    229.039
  -818.602   -189.792    51.6943
  -800.869   -189.549    49.6199
  -833.339    529.972    38.3552
   -828.81   -189.831    56.4705
  -820.326    521.851    26.3569
  -847.572   -317.139    94.7878
  -847.725   -309.141    94.6083
  -890.652    678.613    234.748
  -890.702    686.605    234.284
  -890.856    694.602    234.108
  -890.959    702.595    233.791
  -891.114    710.591    233.619
  -891.225    718.587    233.324
  -891.423    726.586     233.27
  -864.164    478.636    223.384
  -864.492     494.63    223.091
  -810.013    521.883    21.2853
  -893.774    807.271    257.484
  -876.756    614.527    224.529
  -877.634    670.492    222.743
  -877.656    678.481    222.201
  -878.223    710.465    221.361
  -878.501    718.471    221.532
  -837.199   -325.097    90.1585
  -837.366     -317.1    90.0197
   -837.55     -309.1    89.9273
  -775.782   -165.128    48.9245
   -775.89   -157.135    48.6198
  -775.936   -149.143    48.1418
  -865.437    558.587    220.886
  -865.751    574.581    220.553
  -865.827    582.573     220.16
  -866.063    590.574    220.212
  -866.049    598.561    219.568
  -866.233     606.56    219.476
  -867.096    654.537    218.255
  -867.234    662.533    218.034
  -868.062    718.495     216.11
  -868.245    726.493    216.016
  -865.424    398.841    232.948
  -865.506    406.833    232.572
   -865.74    414.835    232.621
  -865.865     422.83    232.364
  -865.854    430.816     231.73
  -866.008    438.813    231.555
  -866.059    446.803    231.092
  -866.454    462.802    230.982
  -866.577    470.797     230.72
  -866.616    478.787    230.225
  -866.742    486.782     229.97
  -866.918     494.78    229.857
   -774.18     514.36    16.7289
  -853.802   -8.55835     255.08
  -853.909  -0.564911    254.776
  -855.286    414.858    227.156
  -744.782   -173.021    34.1507
  -744.681   -165.041    33.2639
  -755.254   -173.044    39.6651
  -755.354   -165.051    39.3395
  -755.495   -157.055    39.1275
  -755.618   -149.059    38.8653
  -820.682   -197.651     58.101
  -811.014   -181.603    53.6176
  -836.985    398.424    201.012
  -833.204    30.7758    218.293
  -833.343    38.7711    218.077
  -834.394    86.7606    217.377
  -834.762    110.746    216.589
  -835.635    166.709    214.791
  -835.797    174.708    214.637
  -836.035    190.696    214.089
  -822.557    150.597    203.221
  -823.058    182.577    202.197
  -823.536    54.8105    213.212
  -824.235    94.7894    212.137
  -824.533     118.77    211.152
  -824.657    126.765    210.894
  -824.891    134.766    210.942
  -825.358    166.744    209.826
  -825.479     174.74    209.558
    -832.9    6.79468     219.26
  -821.873   -41.1394    215.834
  -788.649    734.251    159.264
  -788.794    742.247    159.065
  -789.108    758.241     158.73
  -805.084    522.248    31.2393
  -765.092   -181.092     44.011
  -765.071   -173.107    43.3481
  -765.712   -157.094    43.9263
  -794.836    522.284    26.3511
  -854.153    666.371    62.4355
  -854.257    674.364    62.1215
  -868.092    550.763    228.897
  -868.082     558.75    228.266
  -868.116    566.739    227.756
  -868.244    574.734    227.507
  -868.411    582.732    227.368
   -868.57    590.729    227.207
  -868.669    598.723    226.877
  -868.801    606.718    226.642
  -869.125    622.714    226.335
  -869.341      638.7    225.728
  -869.493    646.696    225.545
  -869.613    654.693    225.277
  -869.729    662.687    224.996
  -835.006    742.422     193.18
  -835.221    750.424    193.176
  -789.951    46.7579    191.221
  -826.389    382.464    196.367
  -826.441    390.455    195.906
  -826.558    398.449    195.629
  -846.606   -8.33368    258.706
  -846.599  -0.347351    258.081
  -799.078    742.212    164.049
  -857.874    566.776    222.881
  -811.102    78.6744    200.408
  -811.244      86.67      200.2
  -812.115    142.635    198.394
  -815.989    382.491    191.053
  -813.614    390.332    183.823
  -825.988    658.652    55.5676
  -826.122    666.647    55.3344
  -826.299    674.645    55.2226
  -826.354    682.637    54.7734
  -826.541    690.636    54.6887
  -800.106    38.7268    196.457
  -800.245    46.7243    196.241
  -801.318    118.675    193.789
  -747.209   -172.872    40.9197
  -747.367   -164.875     40.758
  -747.488   -156.881    40.4899
  -747.639   -148.883     40.305
   -802.59   -237.365    58.0524
  -802.797   -221.379    57.4183
  -802.941   -213.381    57.2159
  -803.062   -205.387    56.9499
   -803.15   -197.395    56.5895
  -803.321   -181.409    55.8552
  -803.876    -56.888    214.235
  -803.977   -48.8929    213.912
  -778.968    6.81122    187.311
  -748.789    506.812    17.6043
  -726.869   -172.789    31.5771
  -727.011   -164.793    31.3669
  -727.011   -156.807    30.7636
  -727.152   -148.809    30.5516
  -727.287   -140.814    30.3223
  -727.433   -132.818    30.1258
  -827.165    278.678    206.397
   -829.98    446.584    201.544
   -830.26    462.576    201.117
  -813.474    70.8319    207.632
  -813.586    78.8276    207.337
  -814.206    118.802    206.042
  -814.322    126.796    205.761
  -814.711    142.795    205.638
  -807.124    543.695    225.324
  -776.295   -1.34039    180.461
  -728.145    498.889    8.02313
  -788.487   -49.1797    194.398
  -850.717    807.958    255.868
  -778.611    750.276    153.749
  -775.294    94.4452    170.408
  -814.241   -48.9284    218.844
  -842.759   -56.4957    251.603
  -843.295   -32.5002    251.283
  -843.588   -24.4954    251.495
  -843.641   -16.5034    251.038
  -843.708   -8.51239     250.62
  -843.837   -0.51767    250.375
  -709.312   -164.548    29.3956
  -709.266   -156.564    28.6633
  -709.402   -148.567    28.4377
  -709.535   -140.572    28.2025
  -709.667   -132.577    27.9675
  -709.802   -124.582    27.7381
  -709.948   -116.584    27.5414
  -855.333    79.3966    252.696
  -856.064    111.391    252.317
  -856.275    127.377    251.696
    -815.3    23.0219    216.354
  -815.409    31.0153    216.053
  -836.589    674.611    60.2302
  -850.365    551.007    226.842
   -766.04   -1.30444     175.55
  -699.018   -172.501    24.9836
  -699.704   -116.547    22.6611
  -802.662    30.8977    204.192
  -796.497   -56.6747    217.348
  -796.617   -48.6783    217.078
  -808.862    690.882    52.7751
  -816.501    495.681    231.408
  -791.687    528.106    230.867
  -791.829    536.102    230.659
  -843.681    840.141     257.52
  -701.074    -212.31    33.7436
   -701.22   -204.314    33.5452
  -701.178    -196.33    32.8243
   -701.47    -172.35     31.824
  -742.399    134.358    146.713
  -806.328    495.723    226.734
  -835.483   -56.2757    255.011
  -836.391    7.67847    252.702
  -789.177    527.951    223.866
   -789.11    535.934    223.074
   -774.85    817.284    256.919
   -806.82   -48.7177    221.841
  -724.198    651.742    32.9145
  -724.334    659.737    32.6871
   -724.47    667.732    32.4616
  -724.589    675.726    32.1898
  -724.658    683.719    31.7753
  -724.761    691.712    31.4592
  -724.928    699.709    31.3205
  -725.108    707.707    31.2164
  -725.261    715.705    31.0392
  -842.959    551.219    229.886
   -691.45   -164.313    26.9648
  -691.527   -156.321    26.5735
  -691.643   -148.325    26.2921
  -691.784    -140.33      26.08
   -691.92   -132.335    25.8546
  -692.047    -124.34     25.606
  -868.636    815.715    257.847
  -868.532    823.695    256.953
  -714.081    160.584    208.103
  -788.343     495.95    223.959
  -788.625    503.955    224.142
  -788.911     511.96    224.335
  -789.022    519.954    224.038
  -798.914    503.921    229.144
  -695.913    636.027    26.3188
  -696.085    644.024    26.1937
  -696.194     652.02    25.8947
  -696.332    660.015    25.6751
  -696.477    668.011    25.4728
   -696.54    676.002    25.0449
  -696.645    683.997    24.7307
  -696.696    691.987    24.2681
  -696.861    699.984    24.1235
  -697.112    707.986      24.22
  -697.227    715.982    23.9367
   -767.53    825.488    259.594
  -767.731    833.487    259.548
  -818.111    832.583    257.894
  -817.916    840.558    256.745
  -835.271    551.413    232.139
  -819.166    23.9286    250.838
  -800.237    816.844    256.639
  -706.836    176.782    210.381
  -707.007    683.967    29.9389
  -707.116    691.961    29.6382
  -692.745   -190.835      222.6
  -836.562    15.6779    252.575
  -836.756    23.6766    252.512
  -837.015    31.6793    252.629
  -837.081      39.67    252.207
  -837.147     47.663    251.789
  -837.194    55.6526    251.314
  -837.384    63.6512    251.239
  -837.539    71.6474    251.066
  -689.917    224.998    206.956
  -637.987    349.592    52.4089
  -639.905    461.532    49.2884
  -639.925    469.521    48.7392
  -640.003    477.513    48.3519
  -640.301    485.519    48.5773
   -818.42   -8.06641    251.177
  -818.665 -0.0645752    251.256
  -818.816    7.93158    251.073
  -683.523    -142.81    216.948
  -791.377    512.112    231.212
  -791.631    520.115    231.316
  -655.876    37.8541    78.5038
  -656.768    93.8206    76.7579
  -656.963    101.819     76.696
  -657.029    109.812    76.2758
  -657.176    117.808    76.0793
  -657.426    133.797    75.5684
  -657.691    149.789    75.0982
  -657.911    157.789    75.1059
   -658.06    173.774    74.3099
  -659.448    253.731     72.134
  -681.234    14.1208    103.661
  -658.283    30.0158    85.8244
  -658.621    46.0122    85.5565
  -658.739    54.0062    85.2809
  -658.788     61.996    84.8126
  -659.204     85.984    84.1591
   -659.68    109.976    83.6716
  -659.807     117.97    83.4191
  -659.898    125.963    83.0683
  -660.124    141.952    82.4899
  -660.717    173.938    81.7228
  -662.023     253.89    79.3177
  -810.909    840.794    260.897
  -735.107    691.682    36.6231
  -668.193    5.99603    91.5837
  -667.975    378.077    229.051
  -668.072     386.07    228.718
  -635.187    29.9285    68.7956
  -635.329     37.924    68.5876
   -635.46    45.9209    68.3484
  -635.567    53.9142    68.0419
  -635.664     61.907    67.7067
  -635.782     69.901    67.4311
  -636.006    77.9037    67.4504
   -636.03    85.8918    66.9125
  -636.128    93.8847    66.5812
  -636.356    101.886    66.6138
  -636.807    125.876    66.0568
  -636.792    133.862    65.4092
  -637.006    141.863    65.3995
  -637.129    149.858    65.1393
  -637.201    157.849    64.7347
  -637.364    165.846    64.5843
  -637.592    173.849    64.6152
  -637.584    181.835    63.9887
  -637.711     189.83    63.7382
  -637.853    197.825    63.5283
  -637.992    205.822    63.3102
  -638.158    213.819    63.1696
  -638.364    221.819    63.1408
  -638.423     229.81    62.6995
  -638.594    237.808    62.5722
  -638.746    245.804     62.389
  -638.907    253.802    62.2349
  -638.904    261.789     61.622
  -678.424    652.261    23.7184
  -678.916     684.24    22.6717
  -679.073    692.237    22.5041
  -679.142    700.228    22.0917
