   -419.621    -159.808     422.812
   -359.579    -264.702     410.272
   -352.802    -264.177     406.049
   -346.025    -263.665      401.82
   -339.166     -262.37     397.867
   -332.453    -262.446     393.432
   -318.762    -260.134     385.427
   -652.764    -262.459     593.354
    360.269     32.2877     22.6386
   -363.779    -262.621     403.761
   -356.996    -262.045     399.555
   -350.199    -261.345     395.392
   -343.379    -260.421     391.309
   -336.598    -259.855       387.1
   -572.029     -261.68     540.733
    -565.19    -260.597     536.704
   -456.368    -248.598     470.388
   -449.582    -247.982     466.196
   -442.858    -247.952     461.799
   -261.468     21.9529     436.181
   -254.679     22.5936     431.998
   -247.889     23.2225      427.81
   -234.216     25.3844     419.753
    412.659     598.703      115.17
    385.577     369.118     76.8465
   -621.042     -9.4173     658.793
   -614.226    -8.52161       654.7
   -607.378    -7.33142      650.71
   -593.759    -5.68945     642.469
   -514.397    -58.9919     578.126
    407.047     587.606     104.037
    372.189     59.3438     16.0694
    385.596     311.414     143.826
    -656.98    -199.452     582.074
   -789.471    -202.898     657.373
   -660.254    -188.733     578.592
   -437.513    -179.882     436.239
    384.233     277.273     120.202
    368.847     69.4298     12.3654
   -411.968    -151.103     421.457
   -405.238    -151.014     417.081
   -763.941    -174.259     642.542
   -440.899    -190.038     444.326
   -423.246    -192.006     442.062
   -424.248    -241.011     462.658
     367.89     40.6796     21.1729
    410.072     595.995     125.871
    416.798     596.046     121.481
   -577.979    -254.495      547.66
    -435.17    -238.928     460.556
   -428.423    -238.695     456.229
   -599.838    0.293701     648.975
   -586.211     2.03021     640.769
   -287.811     26.9976     455.581
   -281.079     27.1075     451.212
   -274.289     27.7327     447.023
   -267.494      28.433     442.861
   -240.292     31.3953     426.269
   -226.648     33.2885     418.118
   -506.772     -50.556     576.677
   -500.046    -50.4996     572.289
    386.405     318.961     146.472
   -761.434    -192.137     643.516
   -429.886    -171.428     434.796
    373.013      67.033     18.7661
   -257.276     19.7848     442.664
   -250.483     20.4669     438.496
   -236.884     21.9249      430.19
   -783.551    -169.091     657.578
   -661.205    -156.338      582.71
   -654.383    -155.392     578.634
   -520.311    -72.8939     566.007
   -513.513    -72.1704     561.854
    386.349     376.313     79.3698
   -785.339    -205.604     663.665
    390.038     412.332     122.542
   -433.371    -182.502     442.561
     407.81     594.722     106.532
    371.295     92.2672     20.3742
    -243.32     22.9765     404.426
   -651.861    -173.135     579.655
   -402.877    -128.988     424.805
    394.197     532.047     119.502
   -651.199    -186.782     593.759
    390.153     433.231     110.981
    459.546     141.727    -26.8247
   -422.222    -162.625     433.476
   -415.421    -161.896     429.323
   -408.682    -161.722     424.976
   -416.631    -232.648     461.184
   -409.876    -232.324      456.89
   -420.812    -230.386     454.736
   -414.756    -175.498     443.444
   -408.049    -175.642     438.985
   -782.849    -162.547     659.873
   -762.483    -160.659     647.312
   -660.383    -148.666       585.4
   -653.669    -148.735     580.969
   -578.637     9.98737     639.152
   -571.787     11.1828     635.162
   -492.438    -42.2443     570.775
    390.825      419.67     125.115
    372.084     99.6208     22.9531
    453.653      108.18     -26.939
   -341.451     28.1913     491.262
   -334.649     28.9547     487.123
   -327.857     29.6058     482.942
   -321.074     30.1852     478.738
   -314.282     30.8513     474.564
    -307.47     31.7076     470.457
   -300.685     32.2875     466.252
   -293.888      33.001     462.094
   -787.035    -180.172     665.343
   -773.451     -178.84     656.995
   -766.646    -178.061      652.86
   -566.899    -68.6108     598.364
    -560.11    -67.9717     594.181
   -553.308     -67.225     590.034
   -546.519    -66.5841     585.852
   -539.734    -65.9816     581.655
   -532.982    -65.6868     577.351
   -397.014    -51.2449      494.26
   -425.719    -173.816       441.2
   -418.921    -173.088     437.048
   -283.322      25.986     431.928
   -276.564      26.343     427.646
   -269.778     26.9502     423.451
   -262.979     27.6768     419.298
   -256.179     28.4091     415.146
   -249.376     29.1721     411.006
   -235.751     30.8865     402.793
   -228.905     32.0416     398.789
   -401.032    -153.046     423.611
   -394.306    -152.997     419.221
   -276.922     24.6154     457.582
   -270.141     25.1608     453.364
   -263.353     25.7877     449.176
   -242.958     27.9557     436.713
   -229.329     29.7002      428.51
   -222.501     30.7036     424.454
     415.32     602.087     104.708
   -639.559    -201.983     610.154
   -225.552     22.0611      402.53
   -402.313    -224.469     455.237
   -659.627    -141.615     587.873
    -646.08    -140.628     579.404
   -639.222    -139.349     575.445
    334.648    -17.0157     49.1125
   -413.251    -222.552     453.076
     372.78     147.387     32.4614
    393.935     489.938     142.516
   -564.232     18.9644     633.484
   -400.347    -166.485     437.788
   -393.622    -166.446     433.395
    387.185     384.112     82.1048
   -791.384    -199.302     670.283
   -784.519    -197.961     666.346
    372.905     107.283     25.6401
    454.482     115.916     -24.226
    345.629    -18.5294     51.4156
    457.809     105.689    -20.5712
   -772.674    -171.586     659.539
   -765.891    -171.019     655.329
    393.262     442.409      133.09
    372.787      86.356     37.1914
   -484.035     -26.544     571.874
   -448.095    -111.922     461.645
   -441.321    -111.447     457.403
   -774.352    -145.971     661.279
   -767.555    -145.279     657.113
   -760.763    -144.606     652.941
   -713.231    -140.086     623.672
   -638.294    -130.688     578.482
    394.739     497.438     145.147
    -525.34    -57.1122      575.95
   -518.593    -56.8618      571.63
   -350.546     25.8629     475.963
   -343.732     26.7382     471.863
   -336.911     27.6539     467.775
   -330.071     28.7766     463.761
   -323.274     29.4831     459.602
   -316.515     29.8482     455.322
   -309.767     30.0854     450.997
   -302.965     30.8457     446.856
   -296.168     31.5593     442.699
   -289.368     32.2934     438.549
   -411.283    -164.552     435.632
   -404.487     -163.85     431.471
   -272.376     24.1464     434.117
   -265.639     24.2961     429.762
   -258.843     25.0026     425.602
   -252.029     25.8578     421.493
   -245.236     26.5405     417.325
   -238.427      27.356     413.203
    462.803     172.112    -16.1689
     469.57     172.543    -20.4252
   -391.949    -131.008     426.932
    395.032     539.832     122.232
   -785.449    -165.374     670.532
   -765.037    -163.053     658.123
    462.854     131.315    -23.2332
   -385.961    -157.673     432.064
   -379.212    -157.417     427.745
   -372.381    -156.386     423.699
   -404.777    -206.196     454.404
    458.663     113.658    -17.7767
    -316.86     28.2277     485.295
   -310.097     28.6221     481.025
   -303.299      29.342      476.87
   -296.545     29.6378     472.565
   -289.748     30.3508     468.408
    -282.95     31.0783     464.256
    363.483     1.18042     37.8625
    468.736     103.671    -18.4451
    360.808    -2.34186     48.2762
    367.628    -1.40674     44.1965
   -321.865    -266.028     425.551
   -315.041    -265.064     421.481
   -780.345    -139.184     668.067
    -712.35    -131.866     626.554
   -698.877    -131.573     617.842
    -644.29    -123.936     585.258
   -393.028    -200.564     459.211
    375.182     169.797     40.3205
   -384.237    -121.784     425.758
    396.366     512.623     150.472
   -388.069    -9.07062     516.293
   -776.862    -189.225     665.002
   -770.045    -188.319     660.912
   -654.444    -175.794     590.371
   -784.608    -157.527     673.284
   -777.779    -156.519      669.23
   -770.999    -155.965     665.017
   -655.541    -144.765     594.011
   -648.753    -144.143     589.822
   -510.951    -48.2719     570.235
    464.499     146.666    -17.8497
   -116.353     100.285     363.847
   -109.549     101.051     359.707
   -396.881    -155.589     429.961
   -390.145    -155.444     425.604
   -376.582     -154.32     417.182
   -305.574     27.9348     457.484
   -298.785     28.5779     453.302
   -292.011     29.0775      449.07
   -285.231     29.6304     444.856
   -278.428     30.3853     440.712
   -230.797     35.8492     411.774
   -589.234    -111.911     554.212
   -582.483     -111.63     549.904
   -575.683    -110.902      545.75
   -568.849    -109.852     541.711
   -779.583    -132.075      670.56
   -766.013    -130.889     662.159
   -759.227    -130.277     657.966
   -752.453    -129.786     653.731
   -336.537     32.7625     500.108
   -329.738     33.4899     495.956
   -322.938     34.2176     491.803
    371.114     9.67786     36.4351
    395.731     546.354     124.519
   -346.377    -265.329     431.778
     -339.6    -264.803     427.555
    -326.03    -263.625     419.152
    -397.16    -116.928     436.278
   -390.245    -115.114     432.506
   -701.494    -134.563     628.444
   -694.652    -133.426     624.435
   -646.966    -127.469      595.67
    376.819     185.065     45.6746
    472.842     161.797     -16.951
    -396.36    -190.388     455.539
   -385.445    -192.515     457.627
    389.516     389.254     163.881
   -772.049    -124.489     668.812
   -744.821    -121.279     652.307
   -703.921    -115.928     627.736
   -697.134     -115.31     623.545
   -669.998    -112.961     606.738
   -663.258     -112.78     602.394
   -642.831    -110.319     590.033
    399.532     542.159      160.83
   -503.342    -39.9803     568.735
    -394.63    -29.0097     502.057
    -443.93    -114.345     468.038
   -437.179    -114.079     463.723
   -430.375    -113.297      459.59
   -423.584    -112.635     455.414
   -416.781    -111.871     451.275
   -409.984    -111.174      447.11
   -403.187     -110.46     442.953
   -379.736     5.94971     517.152
    467.845     136.623    -14.1304
   -341.496    -261.058     440.517
   -334.695    -260.313     436.371
   -327.891    -259.549      432.23
   -345.619     30.5651     484.854
   -338.821     31.2925     480.701
    -332.02     32.0228     476.549
   -325.222      32.748     472.396
   -318.423      33.475     468.243
   -311.625     34.2023     464.091
    477.934     126.786    -14.7464
   -789.632    -182.964     676.013
   -755.028    -132.378     664.473
   -700.575    -125.986     631.452
   -693.762    -125.129     627.345
    479.584     203.249    -14.0656
   -381.715    -139.515     426.782
   -395.683    -122.974     453.047
   -388.834    -121.774     449.061
    370.917     29.2676     54.9538
   -759.541    -131.594     688.047
   -657.566    -120.779     625.722
   -650.802    -120.367     621.459
   -643.989    -119.522     617.346
    371.949      17.469     39.1673
   -120.503     102.837       357.5
   -113.695     103.634     353.371
   -134.088      101.49     365.843
   -777.867     -116.07     676.173
    482.045     184.939    -13.2438
    407.157     550.593      159.38
   -388.784    -182.403     453.931
   -364.211    -182.527     447.905
   -463.566    -109.436     482.983
   -456.774    -108.772     478.808
    404.507     547.307     169.877
    -586.04    -265.384     578.791
    -579.16    -263.912     574.898
   -267.849     23.5084     410.595
   -261.066       24.08     406.387
    -254.31     24.4066     402.094
   -247.472     25.5048     398.072
   -240.697     26.0082     393.841
   -233.859     27.0862      389.81
    473.659     210.687    -7.04858
    480.433     211.174    -11.2863
   -767.908    -127.131     675.129
   -761.116    -126.474     670.951
   -659.119    -115.439     608.704
   -645.495    -113.747     600.481
    475.384      144.25    -15.8632
    403.363     554.859     123.095
   -332.036    -256.954     425.899
   -546.077    -85.5092     537.024
   -495.754    -31.9037     567.159
    -372.12     14.3018     515.673
   -365.261     15.6008     511.721
   -770.284    -108.028     674.585
   -763.501    -107.456     670.377
   -756.682     -106.54     666.291
   -749.863    -105.621     662.206
    -435.64    -119.525     480.704
   -428.905    -119.411     476.336
    -422.09    -118.531     472.237
   -415.299    -117.871     468.061
   -408.503    -117.167       463.9
   -401.709    -116.501     459.725
    407.981     558.276     162.075
    372.715     24.6083      41.671
   -360.351     16.9261     458.345
   -271.994     26.1089     404.264
   -265.235     26.4545     399.977
   -258.397      27.549     395.953
   -251.628     28.0015     391.704
   -244.846     28.5722     387.497
    473.667     149.676    -2.31165
   -571.455    -112.731     552.352
    474.316     216.815    -4.89935
    481.124     217.616    -9.02716
   -766.994    -118.601      678.12
     -760.2    -117.933     673.946
   -753.346    -116.687     669.976
   -671.913    -109.401     619.637
   -665.127    -108.789     615.444
   -637.924    -105.817     598.855
   -770.596    -86.2851     754.941
   -135.579     107.418      349.03
   -128.788     108.078     344.854
   -121.947     109.181     340.832
   -381.133    -173.721     452.569
   -374.422    -173.811      448.13
   -367.545    -172.368     444.227
   -377.002    -176.447     458.854
   -370.223    -175.904     454.637
   -355.443     21.4394     467.171
   -348.637     22.2345     463.042
   -294.225     28.2477     429.888
   -287.497     28.3033     425.499
   -280.713     28.8908     421.298
   -273.916     29.6012     417.139
   -399.811    -120.225      446.77
   -392.972    -119.117     442.751
   -579.192    -80.9288      560.67
   -572.455    -80.7953     556.308
   -565.669    -80.1871     552.114
   -395.592    -61.0367     448.635
   -124.645      105.45     351.176
   -117.799     106.612     347.174
   -104.212     107.971     338.836
     478.64     215.882     2.01642
    396.513     475.948     205.934
   -758.645    -123.233     690.978
   -663.575    -114.133      632.46
    -636.41    -111.517     615.746
   -413.581    -265.289      475.87
   -406.817    -264.879     471.606
   -400.024    -264.208     467.434
   -393.228    -263.505     463.273
   -386.428    -262.779     459.118
   -379.622    -261.985      454.99
   -372.824    -261.261     450.836
   -366.031    -260.584     446.666
   -359.221    -259.762     442.546
   -352.405    -258.877     438.448
   -455.269    -114.556     495.669
   -448.496    -114.069     491.433
     -441.7    -113.361     487.273
    -387.19    -106.439     454.438
   -584.264    -106.821      563.24
   -577.461    -106.054     559.102
    408.543     584.957      183.08
   -352.842     24.2823     456.517
   -346.004     25.3624     452.487
   -339.156     26.5498     448.496
   -332.361     27.2426     444.332
   -325.566     27.9387     440.168
   -318.769     28.6332     436.003
   -311.961     29.4504     431.882
   -305.213     29.7074     427.565
   -298.448     30.1176     423.301
   -291.654     30.7945      419.13
   -284.853     31.5415     414.984
   -278.057     32.2456     410.824
   -237.213     37.0684     386.068
   -317.302    -266.326     402.148
    373.586     32.7321     44.5201
   -129.948     98.8545      372.16
    -480.06     10.5356     584.877
   -357.708     23.3663     510.037
   -350.872      24.425         506
    476.095     233.413    0.921448
   -651.333    -146.779     600.546
   -585.262     -74.861     567.206
   -585.135    -256.945     581.751
    377.364     211.574     66.6216
   -114.405     116.844     339.112
   -107.605     117.582     334.964
   -100.792     118.445     330.858
   -598.807    -75.8295     575.681
   -592.036    -75.3635     571.437
   -341.102     29.8222     461.294
   -334.298     30.5997      457.16
   -327.482     31.4932     453.065
     -320.7     32.0581     448.856
   -313.906     32.7344     444.684
   -307.107     33.4636     440.533
   -300.309     34.1867     436.379
    411.904     594.875     174.909
    418.703     595.602     170.757
    376.686      163.99     57.1755
    485.425     175.216    -9.41254
    -439.77    -116.792     474.422
    -433.04    -116.722     470.037
   -426.227    -115.856     465.934
   -419.445    -115.286     461.726
   -412.644    -114.532     457.583
   -405.845    -113.819     453.424
   -391.296    -266.932     450.421
   -384.488     -266.11     446.302
   -377.716    -265.634     442.061
   -370.919    -264.917     437.905
   -364.148    -264.468     433.654
   -357.348    -263.725     429.507
   -110.265     114.199     345.428
   -385.446    -6.04309     505.703
     409.33       592.3     185.656
   -402.649    -267.263     478.011
    -395.88    -266.804     473.764
   -389.089     -266.15     469.586
   -382.261    -265.163     465.524
   -375.479    -264.587     461.318
   -368.672    -263.785     457.192
   -361.887    -263.184     452.995
    -355.09    -262.489      448.83
   -348.294    -261.779     444.672
    402.226      545.85     150.476
   -341.839    -265.877     408.285
   -328.295    -264.912     399.809
   -422.636    -267.225     460.706
   -415.882    -266.917     456.407
   -409.091     -266.26      452.23
   -402.291    -265.516     448.083
   -395.494    -264.821     443.918
     -388.7    -264.134     439.752
   -381.896    -263.362     435.615
   -375.102    -262.675     431.448
   -368.309    -262.018      427.27
   -361.516    -261.335     423.102
   -394.015    -46.3216     453.796
     482.89     173.018     1.46692
    489.585     172.758    -3.03284
    486.969     230.878     2.86664
   -672.794     -76.356     623.983
    -625.21    -71.3444     594.885
   -618.403      -70.54      590.76
   -611.632    -70.0683     586.518
   -604.855    -69.5447     582.294
   -474.798    -108.642     510.967
   -468.028    -108.176     506.723
   -461.248    -107.622      502.51
    485.257     256.174     4.49487
    395.944      449.22      184.91
   -662.673    -105.724     635.409
   -628.823    -103.431     614.174
   -494.202    -81.7338     514.737
   -487.415    -81.1273     510.541
   -587.881    -77.8687     577.801
    416.847     599.729     183.853
   -459.407    -111.896     489.361
   -452.635    -111.419     485.121
   -445.838    -110.705     480.964
    406.645     585.472      133.83
   -412.651    -256.614     478.912
    42.8011     141.319     246.316
   -399.543    -135.937     490.692
   -392.705    -134.834     486.671
   -385.894    -134.012     482.551
    490.432     180.664   -0.260193
   -403.698    -133.438     484.327
   -396.838    -132.137     480.376
   -390.035    -131.377     476.233
   -383.253    -130.811     472.024
    -350.56    -263.092     425.321
   -343.778    -262.526     421.112
   -336.978      -261.8     416.958
   -330.176    -261.036     412.819
    46.9227       138.5      252.57
   -633.699    -229.838     614.867
   -746.824    -77.2709     672.148
   -733.202    -75.5967     663.919
   -726.341    -74.2924     659.969
   -712.738    -72.7799     651.684
   -705.983    -72.4733     647.383
   -699.157    -71.4864     643.321
   -678.794    -69.6269      630.75
     379.77     234.022     74.4941
   -424.501    -263.186     473.775
   -417.759        -263     469.431
    -410.96    -262.275     465.278
    -494.39    -103.306     526.062
    481.109     197.659       2.867
   -554.733    -82.1301     554.268
   -641.376    -75.3244     613.956
    -634.71    -75.8275     609.372
   -627.881    -74.8213     605.318
   -621.015    -73.4783      601.38
   -607.466    -72.4733     592.917
   -600.707    -72.1132     588.636
   -593.916     -71.476     584.451
   -649.637    -130.954     606.096
   -383.201    -8.13434      462.78
   -192.349     79.4116     374.471
   -486.096     16.9189     591.524
   -343.336     32.0351     504.261
   -435.424     -261.12     471.664
   -428.702    -261.104     467.262
   -479.003    -106.607      504.44
   -472.227    -106.091     500.213
   -465.423    -105.309      496.08
   -773.062    -71.2419     691.893
   -718.819     -66.818     658.182
   -691.561    -63.3254     641.776
   -684.796    -62.9075     637.515
    394.067     511.007     131.013
    380.605      241.81     77.2253
    487.873      95.717     -3.9165
   -692.554    -47.9346     719.905
    -412.27    -129.273     501.844
    -405.55     -129.28     497.434
    -742.59    -79.0416      678.77
   -667.847    -71.4681      632.94
   -633.776    -67.1154     612.427
   -613.508    -66.1442     599.544
   -581.124    -77.5276     573.513
   -492.737    -68.0608     519.532
   -485.938    -67.3486     515.373
     502.82     294.628     9.16547
    -416.41     -126.63     495.529
   -409.685    -126.591     491.136
   -382.388    -122.735     474.857
   -354.713    -260.569     418.963
    -347.92    -259.894     414.792
   -334.319    -258.416     406.495
    488.693     205.697     1.27698
   -400.877    -250.732     483.808
   -394.102    -250.216     479.582
   -180.613     84.9319     379.242
   -630.298    -239.379     618.765
   -486.555    -8.78387     570.859
   -377.815     2.45258     504.275
   -601.441    -262.235     600.359
   -375.561    0.422791     461.372
   -704.356    -54.0802     714.915
   -405.022    -248.141     477.476
    407.391     592.429      136.27
    373.189     91.7268     69.6165
    488.842     104.758   -0.745911
   -768.977    -74.4064     698.027
   -748.682    -73.1757     685.234
   -735.054    -71.4363     677.029
   -728.206    -70.2607     673.033
   -673.851    -64.7869      639.69
   -660.214    -62.9551     631.518
   -626.191    -59.0525     610.848
   -177.951     88.3237      368.78
   -171.148     89.0944     364.643
    379.401     171.108     109.104
   -418.281    -122.637      508.58
   -384.223    -118.418     488.019
   -422.468    -120.434     502.111
   -423.584    -254.631     476.775
    382.901     304.491     91.9639
    505.281     317.584     17.2158
   -683.349    -24.7572     723.625
   -656.135     -21.679     707.073
   -649.416    -21.6932     702.661
   -642.599    -20.8074     698.563
   -696.756    -45.8723     713.387
   -145.805     96.1424     361.134
   -139.005     96.8854     356.987
   -610.942     -266.72     614.844
   -597.288    -264.744     606.721
   -590.463     -263.77     602.654
   -367.227     15.4741     462.243
   -395.715    -82.0119     460.171
    381.265     228.155      91.328
   -763.718    -129.299      681.61
   -756.949    -128.869     677.352
   -654.957    -117.869     615.094
   -648.194    -117.491     610.817
    -720.62    -62.1939     671.455
   -713.796    -61.2242     667.387
   -679.862    -58.1522     646.426
   -659.367    -55.0544     634.288
   -434.495    -252.454     474.703
   -427.756    -252.278     470.357
    397.564     464.329     190.209
    407.063      590.97     166.299
    -385.83    -11.2343     473.344
   -512.453     21.8398      610.88
   -505.663     22.4826     606.698
   -498.887     23.0021     602.473
   -492.107     23.5599     598.261
   -417.381     -114.24     511.525
   -410.609    -113.779     507.277
   -387.522    -107.934     484.455
   -638.141    -208.563     626.737
    -386.48    -241.809     478.122
   -675.801    -17.0425     721.923
   -668.921    -15.5731      718.03
   -662.197    -15.5413     713.633
   -635.018    -12.7875     696.968
   -628.198    -11.8618     692.885
   -621.361    -10.7686     688.861
   -614.604     -10.452     684.563
   -607.805    -9.71613     680.414
   -600.947    -8.43085     676.457
   -689.134    -37.4691     711.926
     384.49     319.314     97.1624
   -156.749     98.0312     358.962
   -149.945     98.7877     354.819
   -706.208    -53.1345     665.817
   -699.418    -52.4971     661.631
   -692.674     -52.285     657.298
   -685.872    -51.5192     653.159
   -638.239    -46.0633     624.218
   -631.453    -45.4512     620.025
   -617.758    -43.0964     612.034
   -627.003    -249.896     622.318
   -397.411    -239.834     475.981
   -390.636    -239.326     471.752
    414.943     600.173     134.577
   -370.222      10.584     502.719
   -415.952    -246.143     475.342
   -409.157    -245.454     471.177
    397.284     541.018     141.538
   -623.682    -260.182     625.952
   -616.937    -259.946     621.627
   -423.484    -108.482     517.951
   -416.642    -107.345     513.943
   -389.409    -104.091     497.453
   -518.433    -76.8109     552.985
     -511.6    -75.7566     548.947
   -504.793    -74.9675     544.815
   -498.037    -74.6343     540.525
   -491.259    -74.0991     536.305
    -484.46    -73.3698     532.153
    -377.45     4.24622     474.365
    385.309      326.96     99.8438
   -427.621    -105.814     511.646
   -593.382   -0.557861      674.81
    -569.68    -259.597     560.354
   -420.094    -243.517     469.021
   -413.324    -243.053     464.776
   -657.857    -40.9738     639.226
    -651.07    -40.3521     635.037
   -644.282    -39.7399     630.843
   -623.822    -36.9557     618.597
   -762.786    -120.608     684.658
   -755.975     -119.78     680.539
   -667.753    -111.849     626.019
   -660.989    -111.447     621.753
   -640.584    -109.191      609.32
   -344.829    -209.631      444.07
    407.766     597.531       168.6
    414.565     598.258     164.447
   -681.474    -28.7065     710.591
   -654.294     -25.945     693.929
   -647.502    -25.2886      689.75
     403.74     543.369     229.578
   -585.581    -76.2388     597.263
   -482.593    -77.4039     519.088
   -142.375     106.714     353.191
   -378.899    -233.804     476.521
    381.955     275.848     100.812
   -634.007    -211.269     633.031
   -436.254     -102.22     528.962
    -429.51    -101.997     524.633
   -409.112    -99.8123     512.176
   -395.419    -97.4614     504.185
   -440.438     -99.987     522.504
   -433.664    -99.4942     518.269
   -399.562    -94.8474      497.86
   -369.873      12.213      472.75
   -616.218    -28.7253     617.074
   -571.067    -66.2256      591.96
   -564.298    -65.7808     587.708
   -557.528    -65.3339     583.456
   -585.816     7.31659     673.163
   -579.005     8.15546      669.05
   -572.135      9.5509     665.132
   -673.861    -20.3982     709.097
    -667.11    -20.1119     704.789
   -660.357     -19.805     700.489
   -639.948     -17.519     688.067
    -633.09    -16.2352      684.11
   -626.272    -15.3232     680.022
   -637.256    -200.311     629.631
   -552.481     24.6218     638.303
   -545.634     25.7999     634.309
   -538.865     26.2415     630.055
   -532.088     26.7637     625.831
   -525.297     27.4229     621.654
   -518.489     28.2423     617.534
   -508.973    -72.7014     538.369
   -502.183    -72.0587     534.187
   -495.385    -71.3293     530.035
   -488.599    -70.7211     525.841
   -362.294     20.2237     471.152
    -383.06    -231.357     470.138
   -666.793    -102.899     629.158
   -255.058     20.6532     461.858
   -248.265      21.332     457.689
   -241.479     21.9373     453.494
   -234.641     23.0216     449.465
   -227.794     24.2049     445.473
    -221.03     24.6014     441.204
   -214.208      25.555     437.131
   -484.967     6.02643     576.053
   -362.664        18.4     501.053
   -355.786     19.8496     497.152
   -401.554    -237.218     469.657
   -394.808    -236.985     465.332
    406.461      563.93     145.166
   -625.585    -73.2279     624.766
   -618.795    -72.5755     620.588
   -584.641    -67.4709     600.338
   -577.849    -66.7993     596.166
    389.888     391.114     133.994
   -459.988    -94.2688     537.733
   -453.223    -93.8509     533.472
   -449.044    -96.1323     539.914
   -442.323    -96.1202      535.51
   -549.887    -56.7461      582.06
   -543.085    -55.9821     577.921
   -536.326    -55.6316     573.636
   -564.603     17.1271     663.381
   -557.739     18.4404     659.433
   -551.006     18.5635     655.069
   -405.712    -234.744     463.282
    -622.15     -245.89     630.964
   -618.759    -7.94623     678.201
   -611.958    -7.19781     674.056
    -605.15    -6.38354     669.934
   -598.317    -5.33582     665.894
    384.121     317.487     127.063
   -265.977     22.7465     459.759
   -259.214       23.14     455.489
   -252.411     23.9115     451.352
   -245.615     24.6129     447.191
   -238.789     25.5845     443.123
   -232.007     26.1614     438.918
   -225.178     27.1708     434.864
   -218.357     28.1033     430.783
   -633.101    -202.812     635.997
   -574.428    -56.3222     588.191
   -468.651     -90.941     554.958
   -461.893    -90.6094     550.665
   -540.761    -95.3959     590.232
   -371.289    -225.506     475.024
     -364.5    -224.869      470.84
    360.532    -44.5511     71.2567
    391.497     406.117     139.255
   -528.698    -47.1743     572.193
   -521.919    -46.6353     567.975
   -590.703     2.98608     664.403
    384.914     324.888     129.659
    341.376    -36.7725     56.6666
   -281.438      25.355     481.138
   -274.668      25.815     476.892
   -267.872     26.5218     472.733
   -261.074     27.2304     468.572
   -206.599     33.8204     435.621
    388.688     320.437      165.88
    383.299     248.729     129.084
   -566.822    -48.0613     586.681
   -560.045     -47.551     582.451
   -553.267    -47.0197      578.23
   -624.671    -64.7042     627.756
   -611.192    -64.3624     619.059
    412.967     566.745     233.368
   -556.239    -92.9512     611.554
   -549.441    -92.2276       607.4
   -542.661    -91.6904      603.18
    -514.31    -38.3436     566.475
   -391.955    -25.5103     491.635
   -583.154     10.7098     662.705
   -576.328     11.6978     658.644
   -569.477     12.9172     654.664
   -374.616    -215.282     471.368
    -367.84    -214.768     467.141
   -347.429    -212.457     454.728
   -348.257      27.394      495.39
   -398.134    -226.743     461.681
    357.185    -34.5189     67.5336
    364.056    -33.1338     63.6108
   -386.386    -221.131     466.483
   -299.131     26.9716      483.28
   -292.349     27.5278     479.067
   -285.595     27.8373     474.768
   -278.808     28.4548     470.577
   -272.011     29.1689      466.42
    408.128     579.482      150.62
   -621.276    -237.735     633.824
   -552.476    -39.6361     580.819
   -506.694    -29.9923     564.996
     345.45     -40.037     62.7646
   -561.927     20.6378     652.963
   -555.096      21.666     648.916
    388.151     355.082     140.248
    394.733     436.313     149.845
    368.146    -36.2343     69.7646
   -328.175     28.2504     513.009
   -321.423     28.5422     508.704
   -314.607     29.4207     504.603
   -307.848     29.7793     500.321
   -301.064     30.3695     496.121
   -294.263     31.1241     491.978
   -287.466     31.8152     487.812
    394.611     476.437     156.673
   -388.495    -14.6623      483.79
   -356.068      -208.9     472.032
   -746.397    -71.6902     704.646
   -739.563      -70.63      700.61
   -617.066    -56.4509     626.242
   -603.601    -56.2457     617.498
    388.947     362.512     142.853
   -332.388     30.2063     506.453
   -325.595     30.8796     502.282
   -318.795      31.612      498.13
   -311.986     32.4386     494.013
   -305.203     33.0197     489.809
   -353.481    -206.218     461.323
   -378.836    -213.393     464.789
    371.649     -24.996     62.0571
   -498.306    -14.4571     566.036
    -382.76    -2.41968     495.325
    349.748    -21.3703     57.6604
   -496.969     19.4728     589.585
   -490.235      19.582     585.214
     -389.7    -210.769     462.874
   -530.427    -22.0501     573.763
   -523.643    -21.4572     569.563
   -516.851    -20.7875     565.391
    389.765     370.144      145.53
    396.205     491.308     161.888
   -499.296     -63.333     586.678
   -503.456    -60.8765     580.299
    409.688     594.039     155.725
   -637.259    -78.1788     620.196
   -630.523     -78.032      615.84
    -596.52    -74.3101     595.107
   -589.773    -74.0881     590.776
    414.663     582.571     238.918
    -731.98    -62.5883     699.023
   -725.175    -61.8013     694.891
   -718.332    -60.6717     690.878
   -609.473    -48.3244     624.684
   -595.938    -47.4542     616.174
    397.027      498.98     164.579
    353.872    -24.1638     63.9238
    367.478    -22.6395     55.6421
   -374.426     12.6333     496.196
   -367.572     13.8728     492.224
    393.674     447.866     165.545
   -570.489    -19.5742     601.079
   -550.037     -16.886     588.798
   -529.677    -15.0565     576.216
   -380.109       0.875     484.831
    407.202     554.235     221.738
   -491.685     -55.022     585.185
   -484.952    -54.9251     580.811
   -495.839    -52.5195     578.822
    417.224     601.643     153.984
   -371.185    -204.713     463.426
   -364.345    -203.597      459.41
   -357.631    -203.675     454.973
    393.159     424.857     206.908
       -360     21.7984     490.594
   -353.169     22.8291     486.548
    372.498     -17.076     64.8347
   -359.398    -198.702     468.367
    357.348    -13.1822     56.1232
    364.096    -12.9221     51.8069
    370.961    -11.5812     47.8697
   -622.968    -70.2518     614.161
   -616.165    -69.4973     610.017
    -609.32    -68.3333     606.018
   -595.644    -66.1382     597.973
   -588.829    -65.2779     593.866
   -582.071    -64.9273     589.581
   -562.883    -11.3204     599.566
   -522.047    -6.57202     574.784
   -508.435    -4.97485     566.529
   -372.502     9.14056     483.323
   -557.358     20.4016      629.58
   -537.001     22.2047     616.989
   -530.209     22.8711     612.815
   -523.428     23.4378     608.607
   -516.637      24.073     604.421
   -509.837      24.819     600.275
   -503.046     25.4753     596.097
   -710.783    -52.9396     689.183
   -703.946    -51.8545     685.155
   -690.346    -50.3918     676.852
   -601.848    -39.8943     623.233
   -588.336    -39.2258     614.652
   -488.245    -44.3891     577.264
    393.959     432.314     209.523
    390.183     375.642     177.999
   -476.574    -39.4575     581.828
   -382.149    -203.023     461.183
   -368.556    -201.605     452.865
   -495.114     15.3206     576.479
    408.606     588.758     245.496
    407.555     555.925     191.792
    401.836      543.84     180.311
    361.445    -16.2276     62.2983
    375.109    -14.1459     54.2132
   -514.456     1.55664     573.227
   -364.955     16.8385     481.614
   -358.075     18.3193     477.725
    373.842     16.8963     88.3972
   -744.466    -75.1053     691.799
   -628.765    -61.6364      621.59
   -601.724    -60.1627     604.476
   -479.899    -29.2215     578.176
   -528.286     19.3708     599.939
   -521.529     19.6984     595.645
   -514.753       20.22      591.42
   -507.969     20.8094      587.22
    -501.19     21.3557     583.004
   -393.413    -16.0508     537.143
    410.217      559.31     181.327
    -696.39    -44.0609     683.481
   -594.258    -31.7814      621.67
   -580.712    -30.8167     613.192
    392.587     398.071     185.864
    396.385     454.947      217.46
   -506.872     9.60565     571.642
    410.017     578.887     199.845
   -356.068    -189.096     460.086
    372.628     3.97418     53.3249
   -390.724    -12.4009     526.774
   -374.566    -194.976     459.597
   -397.311     -154.77     521.869
   -390.596    -154.818     517.445
   -561.571     22.3527     623.023
   -554.744     23.3519     618.966
   -547.916     24.3322     614.902
   -541.151     24.7514     610.641
   -534.379     25.2308     606.402
    393.418      405.82     188.582
    397.179     462.355     220.058
   -385.026   -0.510376     538.185
    376.008    -5.76831     57.1513
   -549.832     27.9081     627.805
   -543.033     28.6252     623.648
    404.122     545.331     199.725
   -770.815    -70.1165      711.18
    -736.89    -67.1329     690.187
   -621.186    -53.6254     619.992
    -594.11    -51.8364     602.988
    409.358     595.773     247.956
   -552.875     19.3351     605.908
   -546.114     19.7081     601.631
    412.716     582.622     189.503
   -681.911    -34.3995     678.053
   -661.539    -32.4533     665.512
   -654.775    -32.0422     661.249
   -647.901    -30.6196      657.34
   -634.306    -29.1958     649.023
    -586.69    -23.8778     620.034
    410.453     584.563     232.374
    412.392     601.046     207.615
   -237.716     17.3875      489.68
   -230.917     18.1171     485.528
   -224.085     19.1603     481.487
   -217.226      20.433     477.524
   -196.838     22.5482     465.044
   -382.365     2.87891     527.725
   -248.615     19.6652     487.645
   -241.854     20.0388     483.369
   -235.059     20.7379     479.206
   -228.243     21.6318     475.112
   -221.384     22.9069     471.151
   -214.566     23.8112      467.06
   -377.395     7.97968     536.755
    406.688     589.097     196.182
   -355.127    -180.311     463.167
    362.675     38.1282     104.659
   -374.742      11.281     526.263
    -396.42    -146.456     524.785
   -394.704    -151.888     511.231
   -387.854    -150.674     507.249
    371.317     34.6042     87.3659
   -729.328    -59.2757     688.535
   -722.512    -58.4038     684.433
    -715.69     -57.463     680.355
   -613.595      -45.52     618.426
   -586.509    -43.6389     601.454
   -579.676    -42.5903     597.414
    407.402     595.765     198.521
    414.187     596.345     194.315
    400.418      492.57     230.654
    397.425     443.199      201.69
   -471.797      5.0968     597.453
   -369.794     16.1835     535.223
   -362.979     17.0634     531.124
   -674.368    -26.7249     676.337
   -667.582    -26.1161     672.143
   -640.382    -23.1619     655.548
   -626.737    -21.2792     647.392
   -579.081     -15.598     618.529
    408.165     583.043     212.951
   -475.936     7.74573      591.14
   -367.184     19.0907     524.594
   -360.376     19.9107     520.474
   -765.688    -81.7617     763.769
    371.564     15.4779     69.0096
   -270.829     21.9736     513.327
    -264.07     22.3267     509.043
   -257.312     22.6816      504.76
   -250.515      23.388       500.6
   -243.716     24.1044     496.443
   -209.677      28.162     475.827
   -202.865     29.0116     471.718
    409.845     557.455     211.219
    398.266     451.039      204.44
   -477.814     11.6618     604.162
   -355.448     24.6263     529.369
   -348.617     25.6541     525.322
   -341.786     26.6698     521.269
   -334.967     27.5813     517.182
    -281.76     23.9661     511.193
   -275.026     24.0815     506.825
    -268.25     24.5982     502.599
   -261.449     25.3439     498.453
   -254.655     26.0325     494.287
    -207.01     31.6017     465.385
    363.398     44.8772     107.026
    409.709     597.448     218.003
   -481.929     14.5343     597.928
   -352.794     27.9419     518.883
    -345.99      28.707     514.743
   -339.168     29.6511     510.666
    412.027     599.251     237.525
   -382.041    -137.706     519.038
     329.06     100.722     153.057
    344.915     39.0989     106.573
    351.757      40.236     102.565
    358.525     40.6711     98.3097
    372.104     41.9474     89.9412
   -708.127    -49.5962     678.706
   -701.301    -48.6168     674.642
   -694.518    -48.0507     670.432
   -687.737     -47.481     666.224
   -680.887    -46.2786     662.238
   -646.859    -42.3259     641.586
   -640.068    -41.6829     637.403
   -633.259    -40.8593     633.284
   -606.011    -37.4648     616.843
   -619.163    -13.3155     645.777
   -612.338    -12.3417     641.711
   -605.522    -11.4725     637.607
   -483.829     18.2577     610.884
    398.446     536.863     250.595
   -405.873    -130.676     527.486
   -399.124    -130.419     523.168
   -250.845     18.7018     468.415
   -244.097     18.9564     464.097
   -230.473      20.645     455.873
   -210.062     22.9675     443.465
    372.354     22.8422     71.5922
    412.336     580.696     219.369
    417.274     605.327     216.358
   -239.919     16.6635     470.536
   -226.308       18.23     462.269
   -395.422    -138.752     496.946
   -388.571    -137.531     492.967
   -501.482     20.2289     613.149
   -494.718     20.6357     608.884
   -487.967     20.9138     604.574
   -297.208     26.6816     532.609
   -290.482      26.733      528.22
   -283.704      27.267     523.999
   -276.907     27.9786     519.841
   -676.178     -18.955     751.793
   -635.301    -13.8052     727.153
   -594.578    -10.1172     701.999
   -587.799    -9.56366     697.785
   -523.738     22.1388     638.691
   -516.961     22.6691      634.47
    -510.19     23.1429     630.229
   -503.419     23.5908     625.977
   -496.624     24.2911     621.815
   -489.823     25.0388      617.67
   -314.948     27.8543     534.595
     -308.2     28.1059     530.276
   -301.418     28.6632     526.063
    -294.64     29.2049     521.845
   -287.843     29.9144     517.687
    399.201     543.908     253.066
   -398.068    -142.004     507.456
   -391.282    -141.398     503.261
   -401.734    -133.322     533.799
   -394.986    -133.085     529.474
    352.485     47.0215     104.944
    359.272     47.6394     100.754
    374.674     85.7527     86.4115
    365.889     68.1104     115.174
    -597.98    -3.80548     635.889
    -591.18    -3.06934     631.739
   -326.738    -267.001     479.048
   -673.289    -38.0965       660.7
    -666.46    -37.0959     656.643
   -659.698    -36.7106      652.37
   -652.916     -36.139     648.163
   -625.663    -32.6983     631.738
   -598.404    -29.1943     615.336
   -270.497     23.4657      483.31
   -263.731     23.8895     479.051
   -256.937     24.5637     474.878
   -236.534     26.8139     462.445
   -222.915     28.4583     454.206
   -216.088     29.4449     450.144
   -202.456     31.2115     441.947
   -548.313     22.2452     644.711
   -534.686     23.9664     636.499
   -527.924     24.3533     632.227
   -521.122      25.109     628.084
    -514.36     25.5016     623.815
   -507.554     26.2808     619.679
   -404.927    -121.844     530.583
   -398.214    -121.932     526.144
   -384.613     -120.44     517.852
     -401.4    -131.823     503.783
   -380.927    -128.929     491.574
   -259.562     21.5162     485.461
   -252.789     21.9888     481.219
   -245.999     22.6374     477.039
   -232.395     24.1576     468.757
   -218.764     25.9075     460.554
   -211.946     26.8226     456.467
   -205.126     27.7438     452.383
   -543.407     26.7527     653.533
   -536.606     27.5014     649.388
   -529.808     28.2076     645.227
     373.98     38.0131     76.9126
   -668.496      -9.992     750.529
   -648.137    -8.16144     737.947
   -641.381    -7.83582     733.654
   -627.785    -6.40381      725.34
   -620.961    -5.44159      721.27
   -607.304    -3.42584     713.162
   -600.564    -3.25745     708.812
    415.419     609.453     229.454
   -310.095     31.8626     543.242
   -303.297     32.5903      539.09
   -302.193    -267.389     472.932
   -295.365    -266.395     468.873
    -647.05    -19.4616     722.335
   -640.261    -18.8237     718.152
   -400.789    -124.504     536.892
    -394.05    -124.346     532.539
   -387.207    -123.203     528.532
   -315.429    -267.082     451.314
   -355.827    -266.147      508.63
   -349.028    -265.412      504.48
   -342.244    -264.819     500.281
   -335.439    -264.034     496.149
   -328.648    -263.396     491.963
   -321.853    -262.702     487.799
    407.582     559.402     254.092
   -409.976    -127.687     521.293
   -403.269    -127.836     516.832
   -382.766    -124.646     504.728
     374.54     64.6676      97.909
   -303.633     27.8385     506.882
   -296.915     27.8114     502.465
   -290.124     28.4731     498.289
   -283.328     29.1624     494.122
   -276.529     29.8868     489.969
   -658.004    -17.6857     720.123
   -651.276     -17.609     715.742
   -644.479    -16.9021     711.582
   -637.679    -16.1755     707.429
   -630.783    -14.5384     703.595
   -610.387    -12.3684     691.133
    -346.72    -266.937     461.755
   -390.539    -113.029     524.859
   -540.751     30.0931     643.056
   -618.053    -24.3937     630.243
   -590.841    -21.3385     613.684
   -292.702     25.8464     509.019
   -285.945     26.1865      504.73
   -279.187     26.5185     500.438
   -272.388     27.2485     496.287
   -265.588      27.992      492.14
   -414.118    -125.057     514.972
   -407.409    -125.186     510.518
   -380.045    -120.704     494.459
    367.427     82.4597     120.206
   -351.261    -266.406      485.24
   -344.462    -265.679     481.087
     -337.7    -265.303      476.81
   -330.932    -264.862     472.557
   -378.077    -267.394     471.983
    -371.26    -266.492     467.892
   -364.462    -265.768     463.738
   -357.695    -265.339     459.481
   -350.898     -264.64     455.317
   -344.131    -264.209     451.061
   -583.577     5.17065     630.221
   -576.724     6.38623     626.239
    377.066     108.064      94.236
   -382.613    -266.833      495.48
   -375.802     -265.99     491.368
   -369.015    -265.387     487.171
   -362.216    -264.656      483.02
   -355.447    -264.202     478.772
   -348.655    -263.532     474.599
   -341.865    -262.897     470.413
   -335.072    -262.221     466.242
   -366.725    -263.833     506.607
   -359.982    -263.634     502.268
   -353.187    -262.945     498.102
   -346.316    -261.539     494.188
   -339.511    -260.748     490.058
   -332.791    -260.772     485.641
    408.696     548.338     238.562
   -660.976     -2.5271     748.739
   -654.183    -1.86871     744.561
   -613.389     2.50378     719.649
   -313.173    -265.846     470.639
   -299.512    -263.811     462.536
   -324.046    -263.323      468.69
   -317.324    -263.305     464.288
    -673.48    -15.2281     741.451
   -632.714    -11.1284     716.442
   -625.891     -10.175     712.368
   -605.486    -7.91626     699.937
   -598.733    -7.61115     695.636
    -591.87    -6.28259     691.695
   -333.146    -265.696     453.375
   -409.066    -119.197      524.27
   -678.041    -14.9042     764.862
   -630.374    -9.10785     736.041
   -589.638    -5.29132     710.932
   -582.804    -4.23486     706.895
    375.324     71.9814     100.474
   -323.303     32.4377     521.718
   -316.519     33.0323     517.519
   -309.719     33.7595     513.366
   -314.982    -261.297     483.884
   -301.349    -259.519     475.692
   -294.526    -258.567     471.618
   -677.665     -12.994     734.992
   -670.855    -12.1631     730.876
   -664.034    -11.2429      726.79
   -623.269    -7.13617     701.784
   -616.462    -6.33105     697.658
   -602.841    -4.66467     689.427
   -596.042    -3.93805     685.274
    -582.39    -1.98517     677.143
    -337.33    -263.454     446.918
   -330.504    -262.473     442.855
   -323.749    -262.168     438.553
   -319.143     29.9816       528.1
   -312.362      30.547     523.891
   -305.576     31.1409      519.69
    -298.78     31.8414     515.529
    -328.27    -261.467     462.099
    -321.47    -260.722     457.953
   -413.218    -116.662     517.917
   -406.497    -116.676     513.503
   -386.057    -114.081      501.19
   -418.887    -105.253     556.866
   -412.126    -104.882     552.588
   -405.359    -104.445     548.334
   -398.475    -102.917     544.462
