    418.325     409.857    -46.8998
    419.114     417.381    -44.2953
    419.836     424.946    -41.7941
    414.548     180.056    -92.6319
     423.21     270.834    -62.6257
    423.921     278.405    -60.1426
    424.516     286.047    -57.8397
    426.677     308.744    -50.3459
    427.365     316.329    -47.8972
    427.745     324.102    -45.9318
    428.534     78.0038    -352.063
    429.171     85.6201    -349.697
    429.931     93.1631    -347.136
    430.739     100.675    -344.501
    431.505     108.212    -341.931
     432.36     115.696    -339.223
    433.093     123.256    -336.705
    433.728     130.873     -334.34
    434.448     138.438    -331.842
    435.267     145.943    -329.191
    436.001     153.502    -326.671
    426.302     369.849    -56.0824
    426.924     377.474    -53.7369
    429.684     38.9951    -388.047
    431.178     54.0931    -382.968
    432.029     61.5795    -380.267
    432.644     69.2105    -377.932
    433.476     76.7076    -375.259
    434.148     84.3024    -372.837
    434.852     91.8779    -370.365
    435.677     99.3815    -367.703
    436.478     106.898    -365.079
    437.189     114.469    -362.596
    437.943     122.013    -360.044
    432.707    0.292053    -374.056
    434.152     15.4203    -369.054
    428.203     3.02771    -381.086
     429.02     10.5344    -378.438
    429.655     18.1514    -376.073
    430.643     25.5541    -373.157
    431.296     33.1622    -370.764
    431.976     40.7524     -368.33
    432.726     48.2993    -365.785
    433.455     55.8596    -363.274
    434.199     63.4122    -360.738
    435.024     70.9138    -358.076
    416.308     311.893    -82.6718
    422.177     372.354    -62.5213
    422.881      379.93    -60.0496
    423.607     387.492    -57.5418
     424.34     395.051    -55.0242
    424.861     402.737    -52.8377
    425.592     410.296    -50.3218
    426.267      417.89    -47.8944
    426.949     425.479     -45.457
    433.976     9.22858    -401.608
    434.612     16.8448    -399.241
    435.422      24.356    -396.604
    436.219     31.8747    -393.987
    437.624     47.0285    -389.045
    423.047     199.423    -231.161
    423.779     206.982    -228.645
    424.419     214.596    -226.272
    424.712    -28.5705    -361.121
    426.102    -13.4091    -356.204
    423.424     132.019    -257.701
    424.233     139.531    -255.066
    424.967     147.087    -252.545
    425.653     154.674    -250.102
    426.388     162.232     -247.58
    427.265     169.702    -244.839
    428.019     177.247    -242.286
     428.72     184.825     -239.82
    429.456     192.381    -237.297
    418.834    -164.207    -409.789
    419.674    -156.712    -407.104
    420.445    -149.178    -404.526
    421.129     -141.59    -402.085
    421.743    -133.961    -399.753
     422.43    -126.373    -397.307
    423.095    -118.774    -394.895
    424.449    -103.591    -390.034
    425.361    -96.1402    -387.237
    426.034    -88.5461    -384.813
    426.762    -80.9859    -382.302
    427.519    -73.4429    -379.747
    428.274    -65.8966    -377.195
    428.991    -58.3293    -374.702
    429.736    -50.7793    -372.165
    430.504    -43.2427    -369.593
    431.212    -35.6678    -367.114
    432.635    -20.5268    -362.145
    429.904     124.932    -263.727
    418.699      382.47    -66.5768
    420.244     397.539    -61.4188
    420.751     405.234    -59.2535
    421.539     412.758     -56.649
    422.268     420.319    -54.1382
    422.806     427.995    -51.9237
    424.804    -170.981    -416.613
    430.915    -110.667    -396.084
    419.854     121.329    -249.882
    421.336     136.437    -244.822
    422.839     151.529    -239.728
    423.581     159.083    -237.195
    424.294     166.652    -234.709
    425.064     174.188    -232.134
    425.862     181.707    -229.515
    426.594     189.265    -226.997
    427.446     196.751    -224.295
      428.1     204.357      -221.9
    428.864     211.896    -219.333
    425.968    -171.948    -336.835
    416.514    -65.3114     -349.88
    419.063    -34.8466    -340.406
      427.1     121.781    -253.337
    427.827     129.344    -250.828
    429.288     144.462      -245.8
    417.812     125.719    -236.925
    420.915     155.848    -226.588
    421.523     163.481    -224.265
    422.322     170.999    -221.644
    423.111     178.523    -219.038
    423.876     186.061     -216.47
    424.635     193.603    -213.911
    425.325     201.188    -211.461
    425.047     195.058    -244.179
    425.843     202.578    -241.563
     426.63     210.104    -238.962
    427.277     217.714    -236.577
    425.034     126.187    -240.422
    425.777     133.739    -237.888
    426.447     141.335    -235.469
     427.21     148.874    -232.904
    416.802    -159.821     -396.82
    417.522    -152.256    -394.323
    418.139    -144.628    -391.985
    418.943    -137.113    -389.358
    419.746    -129.596     -386.73
    420.198    -121.868    -384.651
    421.722    -106.788    -379.525
    422.438    -99.2183    -377.034
    423.108    -91.6223    -374.615
    423.883    -84.0908     -372.03
    424.642    -76.5491    -369.471
    425.285    -68.9344    -367.094
    426.079    -61.4138    -364.482
    428.417    -38.8237    -356.711
    429.195    -31.2933    -354.123
    429.803    -23.6604    -351.799
    430.579    -16.1288    -349.215
     424.83     120.011    -273.021
    425.441     127.643    -270.693
    426.129      135.23    -268.246
    426.972      142.72    -265.556
    427.759     150.245    -262.954
    428.486     157.806    -260.446
    429.165     165.399    -258.012
    429.951     172.923    -255.411
    430.769      180.43     -252.76
    431.471     188.007    -250.292
    416.171    -140.283    -378.919
    416.843    -132.687    -376.496
    421.057    -87.2275    -361.676
    422.468     -72.077    -356.725
    426.285    -34.3798    -343.898
    415.646     155.638    -172.995
     416.44     163.159    -170.382
      417.1     170.761    -167.978
    417.863     178.302    -165.414
    418.495     185.921    -163.054
    415.103     202.284    -134.694
    415.798     209.865    -132.236
    416.615     217.372    -129.587
    418.096     232.479    -124.528
    423.066    -166.778    -403.182
    428.107    -113.816    -385.698
     423.83    -63.1974    -384.131
    424.614    -55.6703    -381.535
    425.349    -48.1146    -379.013
    426.029    -40.5242    -376.579
    426.853    -33.0201    -373.919
     427.58    -25.4592    -371.409
    428.373    -17.9379    -368.799
    428.923    -10.2693    -366.566
     412.66    -144.708    -338.721
    413.789     130.792    -71.1505
    414.491      138.37     -68.682
    415.149     145.973    -66.2808
    415.745     153.614    -63.9763
    416.431     161.201    -61.5323
    421.176    -162.479    -389.992
    421.829    -154.872    -387.599
    422.542    -147.303    -385.112
    424.561    -124.519     -377.84
     425.32    -116.977    -375.281
    426.131    -109.466    -372.643
    426.893    -101.924    -370.079
    427.582    -94.3401     -367.63
    429.031    -79.2145    -362.621
    418.182    -63.1766    -331.132
    408.769     125.838    -80.3608
    409.463      133.42    -77.9039
      410.1     141.036    -75.5355
    410.872     148.571    -72.9573
    411.601     156.132    -70.4462
    412.381     163.661    -67.8547
      414.9     175.248    -155.273
     415.63     182.807    -152.759
    416.378     190.356    -150.218
     417.63    -166.884     -349.85
    418.351    -159.319    -347.351
    419.182    -151.821    -344.681
    420.653    -136.707    -339.638
    421.536    -160.993    -420.341
    422.449    -153.543    -417.541
    423.219    -146.008    -414.966
    423.923    -138.433    -412.493
    424.663     -130.88    -409.964
    425.178    -123.188    -407.787
    425.893    -115.619    -405.298
    426.586    -108.037    -402.842
    427.439    -100.553    -400.137
    428.225     -93.025    -397.536
    428.937    -85.4546    -395.052
    429.676    -77.9006    -392.525
    430.386    -70.3296    -390.042
    428.058    -24.0433    -401.575
    428.781    -16.4799    -399.072
    429.598    -8.97339    -396.424
      430.4     -1.4577    -393.798
    429.127    -173.607    -409.864
    427.915    -51.1163    -422.058
    428.657    -43.5645    -419.526
    429.417    -36.0228    -416.968
    430.185    -28.4866    -414.395
    430.964    -20.9551    -411.805
    431.684    -13.3896    -409.307
    432.478    -5.86908    -406.694
    433.146     1.72815    -404.278
    416.155    -161.133    -366.923
    416.875    -153.568    -364.425
    417.672    -146.049    -361.808
     418.36    -138.462     -359.36
    419.125    -130.924    -356.792
    419.798     -123.33    -354.368
     420.43    -115.711    -352.008
    421.195    -108.171    -349.441
    421.843    -100.561    -347.056
    422.608    -93.0234    -344.488
    423.265    -85.4198    -342.088
    425.606    -62.8314    -334.313
    423.536    -173.619    -356.774
    422.143    -159.657    -450.301
    422.887    -152.107    -447.765
    423.647    -144.564    -445.204
    424.528    -137.096    -442.456
    425.211    -129.508    -440.016
    425.825    -121.878    -437.685
    426.488    -114.276    -435.275
    427.141     -106.67    -432.882
    427.989    -99.1824    -430.185
    428.595    -91.5475    -427.865
     429.42     -84.044    -425.203
    430.029     -76.411    -422.879
    430.883    -68.9266    -420.173
    431.625    -61.3747    -417.641
    432.352    -53.8112    -415.133
     433.08     -46.251    -412.622
    433.876    -38.7316    -410.006
    434.611     -31.175    -407.486
    422.564    -168.175    -373.059
    431.023    -77.2734    -343.371
      431.8    -69.7432    -340.783
    427.336    -169.371    -396.517
     425.08    -156.588    -460.481
    425.675    -148.946     -458.18
    426.474    -141.427    -455.559
    427.353    -133.958    -452.812
    428.049    -126.378    -450.352
    428.776    -118.817    -447.844
    429.493    -111.248    -445.351
     430.22    -103.686    -442.843
    430.909    -96.1024    -440.393
    431.529    -88.4759    -438.052
    432.359    -80.9754    -435.382
    433.027    -73.3782    -432.966
     433.77    -65.8269    -430.432
    434.478    -58.2538    -427.954
    427.978    -168.055    -426.425
      428.4    -166.607    -456.673
    428.508    -174.937     -379.92
    413.948    -156.644    -354.226
    415.553    -141.612    -348.972
    416.296     -134.06    -346.439
    416.838    -126.387    -344.219
    418.949    -103.659    -336.803
    431.359     -163.55    -466.823
    415.607    -162.506    -336.869
    416.279    -154.911    -334.447
    410.181     161.848    -87.4293
     410.96     169.378    -84.8395
    421.937      -169.5    -343.127
    433.663    -174.658     -433.69
    437.472    -170.412    -473.421
    419.371    -171.089    -363.277
     420.55    -163.803    -360.063
     421.99    -148.672    -355.068
    424.785    -118.356     -345.21
    425.523      -110.8    -342.684
    427.804    -176.212    -350.113
    432.587    -177.415    -373.552
    427.467    -4.53003    -383.609
    421.477    -140.096    -432.453
    425.004    -102.223    -420.078
    425.786    -94.6951    -417.483
    426.503    -87.1252    -414.992
     427.19    -79.5401    -412.545
    428.044    -72.0557    -409.839
    428.727    -64.4681    -407.398
    429.486    -56.9244    -404.839
    430.213    -49.3629    -402.332
    431.096    -41.8964     -399.58
    431.794    -34.3176    -397.117
    432.514    -26.7503    -394.618
    433.285    -19.2156    -392.042
    433.946    -11.6145    -389.636
    420.744    -67.8805    -343.277
    421.375     -60.261    -340.919
    418.007    -150.845    -424.477
    418.734    -143.284    -421.967
    422.278     -105.42    -409.568
    422.989    -97.8497    -407.083
    423.773    -90.3206    -404.487
    425.137     -75.144    -399.609
    425.895    -67.6017    -397.052
    426.635    -60.0458    -394.524
     427.43    -52.5264    -391.909
    428.217    -45.0013    -389.308
     429.01    -37.4805    -386.695
    429.767    -29.9355    -384.139
    430.527    -22.3943     -381.58
    431.234    -14.8208    -379.103
    431.921    -7.23499    -376.658
    421.447      -271.8    -314.702
    422.305    -264.318     -311.99
    426.595    -162.362     -443.35
    427.282    -154.777    -440.904
    427.998    -147.206    -438.413
    429.457    -132.087    -433.388
    430.098    -124.474    -431.014
    430.856    -116.929    -428.456
    431.566    -109.358    -425.975
    418.081    -165.452    -380.057
     418.87    -157.928    -377.453
    419.742    -150.455    -374.717
    420.538    -142.936    -372.102
    421.228     -135.35    -369.651
    421.915    -127.765    -367.204
    422.522    -120.131    -364.883
    423.315    -112.609    -362.272
    424.055    -105.054    -359.743
    424.848     -97.533    -357.132
    425.484    -89.9165    -354.765
    426.212    -82.3564    -352.254
    426.949    -74.7991     -349.73
    423.586    -165.387    -433.281
    424.461    -157.917    -430.541
     426.65    -135.236    -423.003
    427.356    -127.661    -420.528
    428.012    -120.055     -418.13
    428.734    -112.491    -415.629
    431.704    -82.2821    -405.498
    432.701     -169.22    -449.959
    424.474    -172.486    -386.218
    410.718    -270.138    -316.681
     412.26    -255.067    -311.527
    411.302     129.154    -91.1739
    412.267     136.571    -88.2941
    412.983     144.139    -85.8027
     436.83    -171.728    -443.513
     417.97    -261.685    -318.756
    411.642     149.808    -102.663
    412.246     157.444    -100.345
    413.129     164.911    -97.5934
    413.841     172.482    -95.1085
    411.498     135.333     -58.584
    412.118     142.959    -56.2418
    413.059     158.395    -52.0261
    412.417       178.2    -112.098
    407.773     124.739    -51.0064
    408.434      132.34    -48.6003
    417.904     128.294    -64.7279
    419.939     151.067    -57.4293
    420.673     158.624      -54.91
    408.722     584.426     247.877
    409.587     591.904     250.601
    415.493     132.906    -52.3469
    415.797     140.725    -50.4995
    416.418     148.351    -48.1556
    417.406     155.754    -45.2399
    414.984     154.336    -143.122
    415.684     161.914    -140.655
    416.511     169.416    -137.992
    417.184      177.01    -135.568
    417.974     184.533     -132.96
    422.007     125.801     -58.322
    423.439     140.938    -53.3393
    424.139     148.515    -50.8725
    424.838     156.095    -48.4088
    408.885     557.168      227.87
    409.546     564.769     230.276
    410.207      572.37     232.682
     410.89      579.96     235.121
    411.686      587.48     237.737
    413.067     575.486      222.38
    413.781     583.057     224.869
    411.772     608.286     225.853
    418.535     123.055    -48.9713
    419.053     130.744    -46.7897
    420.031     138.153    -43.8887
    426.115     123.306    -51.9093
     411.13     606.974     255.757
    410.908     573.648      202.87
    411.671     581.188     205.433
    420.361     612.778     209.724
    415.547     607.699     200.835
    407.068     594.879      293.72
    407.754     602.465     296.164
    403.901     543.928     295.301
    404.546     551.539     297.681
     406.57      574.32     304.961
     407.28     581.892     307.443
    402.303     453.713     261.556
    403.813     468.803     266.661
    404.552     476.357     269.188
    405.241     483.942     271.637
     406.67     499.081     276.615
    412.313      559.68     296.413
    413.047     567.237     298.932
    408.333     603.818     266.162
    409.101     611.354     268.733
    404.669     524.305     277.612
    407.318     554.709     287.241
    407.927     562.344     289.566
    408.766     569.837     292.249
    409.576     577.348     294.888
    410.277     584.925     297.356
    411.715       572.9     282.086
    412.395     580.489     284.522
    413.188      588.01     287.133
    408.233     555.858     257.764
    408.968     563.414     260.284
    409.488     571.103      262.47
    410.221     578.661     264.987
    411.063     586.152     267.677
    408.069     583.117     277.768
    408.852     590.644     280.365
    402.303     535.191     322.343
    403.026     542.754     324.845
     403.74     550.325     327.334
     405.93     573.003     334.873
    413.789     568.491     269.184
    414.493     576.066     271.657
    400.309     464.372     306.867
    400.887     472.024     309.144
    401.592     479.599     311.617
    402.361     487.136     314.192
    403.074     494.706     316.679
     403.83      502.25     319.232
    404.588     509.792     321.789
    405.347     517.336     324.348
    406.045     524.914     326.811
    406.777     532.473     329.327
    407.532     540.017     331.879
     408.18     547.628     334.264
    408.687     555.323     336.429
    409.509     562.827     339.086
    410.353     570.317     341.777
    400.098     437.341     286.277
    400.813     444.909     288.767
    401.514     452.486     291.235
    402.177     460.089     293.643
    404.562     482.648     301.487
    405.291      490.21     303.999
    405.949     497.813       306.4
    408.828     528.078     316.388
    411.517     558.457     326.082
     412.35     565.955     328.755
    397.908     366.641     270.495
    398.624      374.21     272.987
    399.341     381.777     275.479
    400.042     389.355     277.948
    400.779      396.91     280.472
    401.498     404.477     282.968
    403.671     427.167     290.482
    404.428     434.711     293.037
    405.144     442.278     295.528
    407.824     594.159     372.857
    408.584     601.702     375.418
    398.577     347.079      252.65
    399.279     354.657     255.118
    399.994     362.226     257.608
     402.17     384.914     265.126
    412.447     572.196     361.186
    413.143     579.776     363.646
    413.954     587.286     366.287
    403.566     596.745      366.21
    404.418     604.233     368.913
    412.365      574.21     252.192
    413.098     581.768     254.709
    406.398      593.58     323.584
    404.318     597.993     336.477
    405.104     605.518     339.078
     408.13     574.818     354.448
    408.954      582.32     357.108
    409.758     589.835     359.737
    402.366     507.993      302.18
    403.067     515.569     304.648
    403.694     523.193     307.001
    404.407     530.763     309.487
    405.199     538.285     312.097
    405.934     545.841     314.619
    406.567     553.462      316.98
    408.716     576.165     324.455
    412.435     586.765     316.865
    409.506     583.689     327.063
     410.07      591.35     329.317
    402.418     480.802     281.997
    403.173     488.347     284.549
    403.877     495.924     287.021
    404.517     503.538     289.394
    405.305     511.062     291.999
    406.019     518.631     294.487
    406.734     526.202     296.977
    407.481     533.751     299.516
    409.234     556.696     306.374
    410.006      564.23     308.952
    410.951     571.659       311.8
     411.59     579.274     314.172
     400.82     417.747     268.513
     401.57     425.295     271.057
    402.288     432.863     273.552
    403.004     440.431     276.043
    403.726     447.995     278.544
    404.417     455.578     280.996
     414.46     561.525     315.905
    415.206     569.074     318.444
    410.976     592.505      299.82
    408.084     589.408     310.072
    407.333     573.597     384.113
    408.827     588.694     389.194
    409.654     596.197     391.858
    410.457     603.712     394.485
    407.446      588.09     339.987
    400.296       518.7     347.369
    401.031     526.255     349.891
     401.89     533.737     352.605
    402.755     541.216      355.33
    403.311     548.881      357.57
    404.669      591.22     382.703
    405.391     598.787     385.203
    406.342     606.212     388.061
     405.59     592.367     353.229
    406.499     599.817     356.022
    413.803      581.08     333.771
    397.965     420.927     311.107
    398.696     428.486     313.621
     399.32     436.109      315.97
    400.031      443.68     318.453
    400.774     451.233     320.987
    401.485     458.804      323.47
    402.196     466.375     325.953
    402.975     473.905     328.543
    403.744     481.442     331.118
    404.458     489.012     333.606
    405.153     496.592     336.064
    406.789     511.606     341.365
    411.122     556.993     356.371
     411.78     564.596     358.772
    413.915     566.451     378.245
    415.333     581.595     383.206
     409.53     569.114       371.4
    410.231     576.691     373.868
    411.001     584.226     376.443
    411.032     577.909     344.212
    411.814     585.437     346.806
    389.559     28.7554     323.404
    390.387     36.2556      326.07
    400.097      491.66     326.798
    400.854     499.203     329.354
    401.634     506.732     331.945
    402.436     514.251     334.569
    403.133      521.83     337.031
    403.902     529.365     339.606
    404.702     536.882     342.228
     405.46     544.427     344.786
    406.883     559.568     349.753
    407.538     567.173     352.149
    396.288     330.758     277.239
     396.98     338.341     279.693
    397.656     345.934     282.122
    398.437     353.463     284.715
    399.264     360.963      287.38
    400.054     368.487     289.986
    400.771     376.055     292.479
    401.477      383.63     294.954
    402.193     391.198     297.445
    403.433     594.861     474.871
    384.722     23.6906     314.479
    397.805     393.863     290.597
    398.561     401.407     293.151
    399.346     408.934     295.748
    400.155     416.446     298.386
    400.907     423.993     300.933
    401.527     431.619     303.275
    402.222       439.2     305.734
    405.241      469.38      315.94
    405.937      476.96       318.4
    406.653     484.529     320.892
    398.489     527.281      501.84
    399.289     534.798     504.462
    399.943     542.403     506.857
    400.766     549.906     509.515
    401.436     557.504     511.935
    403.416      580.31     519.146
    404.268     587.797     521.851
    404.965     595.376     524.313
    401.135     553.351     370.318
    398.595     554.375     522.268
    400.445     522.942     488.753
    391.905     24.1816     310.923
    392.609      31.757     313.396
     393.19     39.4078     315.676
    409.207      565.64     510.673
    409.956     573.188     513.215
    402.737       524.7     508.472
     403.53     532.221     511.083
    404.396     539.698     513.809
    404.949     547.365     516.046
    406.344     562.526      520.97
    407.113     570.061     523.545
    407.924     577.571     526.185
    408.676     585.119     528.732
    409.405     592.679     531.244
    410.148     600.231     533.777
    395.327      442.87     450.886
    396.123     450.389     453.501
    396.847     457.952     456.006
    397.469     465.577      458.35
    399.633     488.273      465.85
    400.465      495.77     468.522
     401.19     503.334     471.028
    401.944     510.879     473.578
    402.683     518.433     476.105
    403.313     526.053     478.462
    395.291     394.871     442.588
     395.98     402.455     445.038
    396.591     410.089     447.364
    397.264     417.683     449.788
    398.138     425.154     452.527
    398.899     432.695     455.088
     399.57     440.292      457.51
    400.394     447.794      460.17
    401.148     455.339      462.72
    401.908      462.88      465.28
    402.593     470.469     467.723
    403.318     478.032     470.229
    404.051     485.589     472.746
    404.818     493.126     475.318
    405.546     500.689     477.827
    406.196     508.297     480.215
    407.004     515.809     482.851
     405.66      542.34     453.966
    406.395     549.897     456.486
    406.968     557.551     458.755
    409.739     587.882     468.574
    411.439     602.857     473.975
    387.613     26.7886     304.224
    388.204     34.4327      306.52
    382.605     21.8274     295.031
    383.293     29.4125      297.48
    383.816     37.0981      299.67
    384.337     44.7852     301.857
    399.191     333.848     267.005
    399.926     341.405     269.526
      400.7     348.938     272.107
    398.146     475.134     351.916
    398.876     482.694     354.428
    399.708     490.191     357.102
    400.388     497.781     359.535
    401.007      505.41     361.876
    401.798     512.932     364.484
    402.538     520.486     367.013
    403.308      528.02     369.589
    404.002     535.604     372.047
    404.676     543.197     374.472
    405.512     550.692      377.15
    406.058     558.363     379.376
    398.673     455.659     333.847
     399.44     463.196     336.417
    400.171     470.754     338.933
    400.876     478.331     341.407
    401.707     485.829     344.078
    402.493     493.355     346.677
    403.308     500.862     349.324
    403.939     508.484     351.683
    404.682     516.036     354.216
    406.885     538.707     361.777
    407.647     546.247      364.34
    396.907     499.637     432.059
    397.746      507.13     434.742
    398.432     514.718     437.188
    398.997     522.377     439.443
    400.432     537.511      444.43
    395.082     367.839     421.999
    395.864     375.367     424.594
    396.608     382.919     427.129
    397.369     390.459     429.691
    398.073     398.035     432.163
    398.822     405.582     434.706
    399.604     413.112     437.301
    400.355     420.659     439.847
    401.061     428.233     442.322
    401.831     435.768     444.898
    405.321     473.666     457.214
    406.127     481.179     459.846
    396.352     335.054     418.487
    397.116     342.593     421.054
    397.846     350.153     423.566
    398.575     357.713     426.079
    399.303     365.274     428.589
    400.116     372.784     431.232
    400.839     380.349     433.734
    401.635     387.868     436.349
    396.227     42.4163     305.652
    389.755     22.3376     291.427
    390.513     29.8806     293.984
    391.322     37.3928      296.62
    392.043      44.958      299.12
    399.468     475.776     401.025
    400.231     483.316      403.59
    400.993     490.857     406.154
    401.711     498.424     408.649
    402.468     505.967     411.204
    403.208      513.52     413.733
    404.021     521.031     416.375
     404.84     528.537     419.027
    405.552     536.107     421.512
    406.278     543.669     424.019
    414.692     565.717     457.417
    415.431     573.273     459.945
    398.852     290.369     399.381
    399.644     297.891     401.992
    400.432     305.416     404.595
    401.329     312.874      407.37
    402.047     320.441     409.864
    402.829      327.97     412.457
    395.408     300.464     395.379
    396.938     315.542     400.514
    397.865     322.982     403.335
    398.591     330.545     405.841
    399.238     338.154     408.226
     400.01     345.689     410.804
     400.76     353.237     413.348
    401.481     360.802     415.848
    398.551     407.713     325.415
    399.364     415.223     328.057
    400.228     422.701     330.779
     400.99     430.241     333.343
    401.675     437.827     335.786
    402.446     445.364     338.363
     403.08     452.982     340.727
    397.436     459.299     426.016
    398.216     466.828     428.607
    398.895     474.419     431.041
    399.667     481.955      433.62
    400.453      489.48     436.221
    401.266     496.989     438.863
    402.111     504.479     441.556
    402.859     512.029     444.098
    403.511     519.635      446.49
    404.219     527.208     448.968
     404.94     534.773     451.467
     396.48     357.801       297.8
    397.197     365.369     300.293
    397.773     373.022     302.566
    398.384     380.654     304.894
    399.134     388.202     307.437
    399.931     395.721     310.055
    400.642     403.293     312.538
    401.438     410.812     315.156
     402.18     418.366     317.687
    405.181     448.556     327.867
    415.943     562.067     365.271
    398.695     447.381     410.468
    399.487     454.905     413.077
    400.384     462.363      415.85
    401.099     469.931     418.342
    401.977       477.4     421.085
    402.506     485.084     423.285
      403.3     492.604     425.898
    407.021      530.36     438.574
    401.896     293.374     389.365
    403.336     308.506     394.361
    401.275     545.004      447.12
        402     552.567     449.625
    406.309     597.968     464.594
    392.167     324.999     347.389
    392.849     332.587     349.828
    393.492       340.2     352.205
    394.287      347.72     354.821
    395.011     355.284     357.324
    395.723     362.855     359.808
    396.548     370.357      362.47
    397.268     377.923     364.968
    397.964     385.504     367.428
    398.701     393.059     369.952
    399.409     400.634     372.431
    400.161     408.179     374.979
    400.864     415.755     377.449
    401.601     423.311     379.973
     402.27     430.909     382.391
    402.909     438.524     384.763
    403.689     446.053     387.354
    404.496     453.565     389.988
    405.127     461.187     392.347
    405.911     468.714     394.943
    399.587     502.863     421.475
    400.392     510.376     424.105
     401.19     517.896     426.725
    401.897      525.47     429.201
    402.607     533.041     431.685
    403.338       540.6     434.199
    406.458      591.58     432.542
     407.19     599.139     435.058
    397.806     324.983     294.375
    398.527     332.548     296.874
    399.232     340.123     299.349
    399.987     347.667     301.901
     400.74     355.213      304.45
    401.394      362.82     306.844
    402.065     370.415     309.266
    402.771     377.989     311.742
    403.486     385.558     314.232
    404.285     393.076     316.853
    405.003     400.643     319.347
    392.843     311.731     361.838
    393.463     319.358     364.179
    394.102     326.973     366.551
    394.866     334.512     369.117
    395.616      342.06     371.661
    396.369     349.606      374.21
    397.075      357.18     376.687
    397.866     364.703     379.294
    398.483     372.331     381.632
    399.156     379.926     384.056
    399.809     387.533     386.449
    400.605     395.053     389.065
    401.408     402.568     391.692
    402.131     410.132     394.195
    402.877     417.682     396.732
    403.533     425.288      399.13
     404.36     432.788     401.795
    405.128     440.325     404.367
    399.255     407.025     404.473
    400.211     414.447     407.339
    401.041     421.947     410.009
    401.725     429.535      412.45
    402.437     437.105     414.934
    403.016     444.756     417.213
    403.724     452.331     419.691
    400.592     328.144     283.958
    401.333     335.697     286.489
    396.663     466.328     379.133
    397.411     473.876     381.675
    398.859     489.002     386.682
    399.577     496.571     389.178
    401.735     519.269     396.666
    402.456     526.836     399.166
    403.095      534.45     401.538
    404.519     549.591     406.507
    409.827     560.669     448.449
    410.466     568.284     450.821
    411.133     575.883     453.236
    411.825     583.466     455.689
    412.724     590.923     458.466
    404.075     548.157     436.723
    404.803     555.718     439.232
    407.525     586.078     448.977
    408.513     593.481     451.892
     409.33     600.987     454.541
    397.745     498.868     511.326
    399.238     513.967     516.404
    396.037     431.544     356.522
     396.81     439.079     359.102
     397.43     446.706     361.443
     398.08     454.313     363.832
    398.786     461.887     366.307
    399.615     469.388     368.976
    400.275     476.991     371.379
    401.082     484.503     374.013
    401.776     492.084     376.469
    402.521     499.636     379.007
     403.32     507.154     381.628
    403.944     514.778     383.975
    404.656     522.348     386.459
    405.443     529.875     389.062
    405.956     537.566     391.236
    406.688     545.124     393.753
     407.39     552.701     396.222
    392.966     359.676     370.272
     401.48     450.544     400.046
    402.182     458.122     402.516
    402.954     465.656     405.094
    403.955      473.05     408.031
    404.629     480.644     410.457
    405.342     488.215     412.944
    406.029     495.801     415.389
    402.105     537.941     494.092
    402.839     545.498     496.611
    403.488     553.107     498.997
    405.434     575.935     506.156
    406.247     583.444     508.798
    407.124     590.916     511.541
     407.98     598.399     514.252
    397.731     310.466     338.562
    399.212     304.713      355.64
    396.184     301.698     365.679
    396.925     309.252      368.21
    397.732     316.764     370.844
    398.514     324.293     373.438
    399.214     331.871     375.904
    400.091     339.341     378.647
    400.768     346.933     381.078
    401.523     354.478      383.63
    402.227     362.054     386.102
    402.839     369.686     388.431
    403.496      377.29      390.83
    404.291      384.81     393.445
    405.056      392.35     396.013
    405.804     399.898     398.554
    408.485       587.2     419.567
    409.245     594.741     422.126
    410.011     602.279     424.696
    394.229     368.616      342.71
    395.032     376.131     345.338
    395.867     383.628     348.014
    396.627     391.169     350.575
    397.343     398.738     353.066
        398     406.343     355.466
    398.767      413.88     358.036
    401.119     436.462     365.828
    401.836     444.029     368.321
    402.513     451.621     370.751
    403.232     459.187     373.248
    405.296     481.943     380.591
    407.543     504.589     388.219
    408.243     512.167     390.686
    410.885     542.575     400.305
    409.732     554.429     416.019
    410.322     562.073     418.314
    411.039     569.641     420.807
     411.67      577.26     423.165
    412.555     584.728     425.919
    396.671     416.338     479.771
     397.52     423.825      482.47
    398.331     431.337      485.11
    398.975     438.948      487.49
    399.778     446.463     490.117
     400.56     453.991     492.711
     401.28     461.559     495.208
    401.856     469.212     497.481
    402.583     476.773      499.99
    403.312     484.333     502.501
    404.024     491.905     504.987
    405.653     506.921     510.277
    399.867     550.714     430.153
    404.394     595.983     445.462
    405.123     603.542     447.974
    408.404     530.966     487.783
    411.232     561.261     497.693
    411.835     568.898     500.007
    404.035     589.903      412.62
    404.758     597.467     415.121
    405.757     604.862     418.055
    395.525     356.676      327.22
    396.357     364.174     329.891
    397.005     371.783     332.278
    397.796     379.306     334.885
    398.634     386.801     337.567
    399.416     394.329     340.161
    400.198     401.857     342.756
    400.905     409.432     345.233
    412.599      563.84     438.008
    413.302     571.415     440.479
    414.008     578.992     442.955
    390.622     280.807     430.836
    391.365     288.358      433.37
    394.213     318.642     443.311
    394.922     326.214      445.79
    396.325     341.369     450.727
    397.132     348.882     453.361
    397.852     356.448     455.859
    398.598     363.998     458.396
    399.559     371.418     461.271
    400.256     378.998     463.733
    400.932      386.59     466.162
    401.637     394.165     468.635
    402.437     401.684     471.258
    403.122     409.271       473.7
    395.803     410.827     368.175
    396.501     418.406     370.639
    397.277     425.937     373.223
    397.974     433.518     375.686
     398.69     441.086     378.177
    399.453     448.626     380.742
    403.004     486.485     393.152
    403.864     493.967     395.869
    404.351     501.674     398.003
    405.899     516.739     403.167
    406.728     524.241     405.834
    407.403     531.834     408.261
    408.094     539.416     410.715
    408.787     546.998      413.17
    394.866     307.353     348.855
     395.63     314.892     351.422
    396.378      322.44     353.964
    397.167     329.965     356.568
     397.74      337.62     358.837
     398.52     345.149     361.428
    399.209     352.734     363.877
     400.89      367.72     369.248
    401.603      375.29     371.735
    402.318     382.859     374.224
     403.01     390.442      376.68
    403.629      398.07     379.019
     404.42     405.592     381.628
    405.168     413.141     384.168
    405.885     420.708     386.661
    406.536     428.318     389.052
    407.231     435.898      391.51
     407.84     443.531     393.834
    412.345     557.696     405.331
    413.652     572.907     410.118
    414.508      580.39     412.829
    398.162     502.284     372.201
    399.009     509.773     374.897
    399.628     517.399     377.238
    400.343     524.968     379.727
    401.128     532.496     382.326
    401.762     540.114     384.689
    402.442     547.703     387.124
    396.116       316.3     321.274
    396.875     323.843     323.832
    397.726     331.329     326.535
    398.381     338.934     328.931
    400.035     353.937      334.26
    400.781     361.486     336.799
     398.49      548.14     489.821
    399.244     555.685     492.371
    403.511     601.113     507.276
    407.704     600.531     404.954
    399.331     296.377     432.411
    400.037     303.951     434.887
    400.682     311.563     437.267
    402.918     334.215     444.879
    407.551     558.904     428.753
    408.308     566.446      431.31
    408.969     574.048     433.714
    410.585     589.074     438.984
    399.025     319.388     311.045
    399.737     326.959      313.53
    400.446     334.531     316.011
    401.144     342.111     318.473
    401.929     349.638     321.072
    395.839     404.505     335.952
    396.571     412.065     338.468
    397.277     419.639     340.943
    398.036     427.181     343.501
    398.822     434.706     346.102
    399.524     442.284     348.573
     400.23     449.858     351.048
    400.988     457.401     353.604
    401.698     464.972     356.086
     404.66     495.186     366.205
    410.416     555.716     386.179
    395.604     335.768     339.363
    396.384     343.297     341.954
     397.19     350.811     344.585
    397.851     358.413     346.991
    398.652      365.93     349.615
    399.431      373.46     352.204
    400.197     380.997     354.774
    400.931     388.555     357.294
    401.664     396.113     359.811
    402.354     403.698     362.262
     407.36     456.679     379.693
     408.08     464.247      382.19
    408.615     471.924     384.399
    409.344     479.485      386.91
    412.329     509.685     397.064
    403.985      533.65     480.885
    404.846      541.13     483.603
    408.296      579.05     495.856
    409.262     586.467     498.737
    410.067     593.982     501.369
    388.313     48.9276      262.39
    389.094     56.4566     264.983
    415.243     560.789     395.088
    415.965     568.353     397.589
    416.576     575.985     399.916
    417.336     583.526     402.476
    411.008     563.362     388.477
    411.466     571.086     390.565
    413.988     593.564     398.625
     396.87     464.237     488.325
    397.572     471.814     490.793
     398.35     479.344     493.381
    399.113     486.884     495.946
    399.706     494.528     498.246
    400.653     501.956     501.098
    401.419     509.493     503.668
    402.175     517.037     506.221
    416.779     582.162     432.514
    400.441     313.673     328.026
    401.191     321.221     330.571
    401.976     328.748     333.169
    392.219     343.863     444.318
    392.992     351.397     446.898
    396.567     389.242     459.346
    397.331      396.78     461.913
    398.012     404.371     464.351
    398.727      411.94      466.84
     399.52     419.461     469.451
    400.321     426.978     472.075
    401.165      434.47     474.767
    401.897     442.028     477.283
    402.634     449.583     479.807
    403.394     457.124     482.367
    394.792     321.959     304.437
    395.559     329.497     307.007
    396.255     337.078     309.468
    396.908     344.684      311.86
    397.561     352.291     314.253
    398.279     359.858     316.748
     399.11     367.356      319.42
    399.921     374.867     322.059
    400.644     382.431     324.561
    401.343      390.01     327.027
    402.079     397.566     329.549
    419.459     579.089     389.646
    399.921     521.557     518.843
    400.585     529.156     521.254
    401.384     536.674     523.875
    402.171     544.199     526.476
    402.977     551.714     529.108
    403.441     559.435     531.206
    404.832     574.596     536.125
    405.709     582.068     538.867
    406.495     589.593     541.468
    407.254     597.135     544.027
     393.07     548.024     543.178
    393.668     34.5231     253.232
    394.786     41.8474     256.351
    392.408     195.094     356.698
    393.336     202.534      359.52
    394.084     210.083     362.061
    394.836      217.63     364.608
    395.422     225.277     366.897
    396.109     232.863     369.343
    396.894     240.389     371.943
    397.609     247.958     374.432
    398.408     255.476     377.053
    399.154     263.027      379.59
    399.858     270.602     382.064
    400.304     278.334     384.134
    400.965     285.937     386.538
    397.176      518.37     529.325
    397.917     525.923     531.856
    398.613     533.503     534.316
    399.425     541.012     536.958
    400.882     556.135     541.979
     403.53      586.54     551.608
    404.393     594.018     554.329
    393.483     283.922     420.535
    394.322     291.416     423.218
    394.915     299.059     425.518
     395.61      306.64     427.977
    396.389      314.17     430.566
    397.151     321.711      433.13
    397.918     329.248       435.7
    398.787     336.724     438.431
    400.951     359.419     445.929
    401.664      366.99     448.416
    402.391     374.552     450.925
    403.091      382.13      453.39
    384.084     30.6363     267.807
    385.187     45.9726     272.277
    385.041     52.3605      304.33
    385.983     59.7919     307.173
    386.793     67.3034     309.811
    387.435     74.9164     312.187
    387.971     82.5945     314.397
    388.868     90.0527     317.172
    391.989      120.17     327.539
    392.883      127.63     330.307
    393.681     135.149     332.926
    394.431     142.696     335.472
    395.165     150.254     337.991
    395.964     157.772     340.612
    396.678     165.342       343.1
    397.291     172.973     345.431
    398.042      180.52     347.976
    398.752     188.092     350.458
    408.564     564.326     540.577
    409.316     571.872     543.124
    410.062     579.423     545.663
    395.555     497.049     491.766
    396.297     504.602     494.297
    397.031     512.158     496.818
    397.822     519.681     499.425
    390.715     79.7429     193.672
    393.179     229.788     379.537
    393.907      237.35     382.046
    394.611     244.925     384.519
    395.252      252.54     386.893
    395.983     260.098     389.409
    396.684     267.676     391.876
    398.113     282.815     396.853
    392.614     52.6143     301.385
    393.374     60.1561     303.945
    394.108     67.7136     306.464
     394.84     75.2725      308.98
    395.643     82.7878     311.607
    396.328     90.3748     314.051
    396.992     97.9749     316.461
    397.635     105.588     318.837
    398.434     113.105      321.46
    391.933     38.7252     266.668
    392.724     46.2482     269.276
    393.463     53.8027     271.804
    382.299     49.1719     314.817
    383.008      56.745     317.297
    389.923     124.574     340.455
    390.685     132.114     343.019
    391.642     139.537     345.885
    392.384     147.089     348.418
    393.082     154.668     350.881
    393.836     162.214     353.432
    394.431     169.856     355.734
    395.085     177.462     358.129
     395.75     185.061      360.54
    396.592     192.553     363.228
    397.329     200.109     365.752
    398.092     207.648     368.318
    398.954     215.128     371.037
    399.675     222.693     373.536
    404.569     275.744     390.791
    396.721     437.169      467.83
    397.611     444.631     470.593
    398.257     452.241     472.974
    398.959     459.818     475.444
    399.706     467.369     477.984
    400.495     474.892     480.589
    401.266     482.427     483.166
    401.906     490.041     485.539
    391.122     64.6737     316.569
    391.773     72.2817     318.959
     393.33     87.3426     324.137
    394.076     94.8924     326.675
    394.831     102.437     329.228
    395.688      109.92     331.938
      396.3     117.552     334.268
     394.27     488.122     519.294
    395.018     495.671     521.836
    395.984     503.087     524.718
    396.699     510.655     527.207
    394.488     408.215      427.94
    396.674     430.898     435.473
    397.467     438.419     438.085
    398.314      445.91     440.781
    399.087     453.442     443.362
     399.89     460.957     445.989
    400.623     468.515     448.507
    401.213     476.161     450.802
    401.904     483.745     453.254
    402.622     491.311     455.748
    403.353      498.87     458.262
    404.127     506.405     460.844
    404.958     513.903     463.516
    405.633     521.495     465.943
    406.242     529.128     468.267
     396.94     49.9866     308.138
     397.55     57.6194     310.464
    399.801      80.262     318.099
    393.899     413.167     490.212
    394.658     420.709     492.771
    395.453     428.231     495.385
    396.244     435.754     497.993
    396.858     443.383     500.325
    397.648     450.906     502.933
    398.266     458.536     505.271
    399.059     466.057     507.883
    399.799      473.61      510.41
    400.551     481.156     512.959
    394.263     339.472     431.367
    395.014     347.019     433.914
    395.821     354.532     436.547
    396.641     362.037       439.2
     397.36     369.604     441.697
    398.197       377.1     444.377
    398.733     384.777     446.588
    399.484     392.324     449.133
    400.197     399.893     451.621
    401.091     407.355      454.39
    401.756     414.954     456.801
    402.471     422.523      459.29
    403.268     430.041     461.909
    395.097     353.267     466.325
    395.808     360.839      468.81
    396.641     368.337     471.483
    397.364       375.9     473.986
     398.04     383.493     476.415
    398.793     391.038     478.964
     399.45     398.644     481.364
    400.166     406.212     483.855
    397.736      371.08     411.376
    398.591     378.564     414.083
    399.486     386.025     416.854
    400.256      393.56      419.43
    400.991     401.116     421.951
    402.441     416.243     426.962
