    942.373     5.90845    -336.244
    111.748     79.7026     13.2622
     109.51     87.3345     14.2129
    107.144     94.9393     14.9743
    901.683    -107.025    -352.124
    111.125     53.0527     26.8201
    108.818     60.6691     27.6694
    106.461     68.2757     28.4439
    109.884    -65.9651     33.4963
    107.671    -58.3304     34.4838
    111.856     106.254    -1.06134
    85.2454     189.798     6.45264
    920.252    -90.6705    -374.927
    157.915     145.296      11.678
    109.559    -115.604     21.0826
    107.432    -107.952     22.1985
    98.4188     -253.86     18.2261
    96.0981    -246.247     19.0542
    110.514     26.4027     40.3984
    108.315     34.0403     41.4067
    759.341    -70.5478    -229.501
    109.516    -1.42572    -32.6434
    107.266     6.20184    -31.7104
    921.758    -59.2595    -342.028
    110.326     32.1705    -28.0345
    108.032     39.7896     -27.166
    105.699     47.4009    -26.3561
    152.358    -239.804     57.1014
    115.848    -125.925     67.0154
    113.163     -118.38     67.3065
    100.914    -80.4363     70.4944
    98.8751    -72.7672     71.7401
    112.282     40.6228    -20.8807
    109.999     48.2438    -19.9966
    107.623     55.8488      -19.25
    63.3911     192.422     -7.9715
    -643.66     453.102     396.494
   -645.892     460.733     397.453
    -648.27     468.336     398.196
    935.022    -47.4297    -331.783
    932.403    -39.8745    -331.396
    99.8826    -252.412     6.76038
    97.7574     -244.76     7.87799
    95.4014    -237.154     8.65411
    111.594      13.958    -7.41992
    109.412     21.6011    -6.38477
     104.59     180.935    -14.3521
    101.934     188.483    -14.0191
    102.796    -210.335     18.7406
    100.711    -202.675      19.917
    116.979    -190.256      34.604
    105.524    -152.155     38.9676
    101.185    -211.812     29.9884
    98.9904    -204.173     31.0034
   -82.4333     170.571     93.3075
    147.768     106.386      34.155
    123.424     182.305     40.7593
    127.514    -154.753      53.592
    119.832    -132.051     55.0138
    105.074    -86.5281     58.7537
        103    -78.8661     59.9459
    100.685    -71.2512      60.783
    914.054    -86.1389    -352.568
   -394.558     117.107     234.068
    108.757    -83.4844      36.939
    106.513    -75.8556      37.881
    154.545    -211.686     32.2208
    152.313    -204.053     33.1823
     149.86    -196.465     33.8148
    108.205    -67.4553     44.6438
    106.032    -59.8126     45.6907
    110.276     62.1157     16.1941
    108.236     69.7844     17.4375
    1016.04    -97.2034    -332.099
    185.402    -219.452     42.0691
    183.032    -211.848      42.824
      180.5    -204.276       43.34
    177.832    -196.728     43.6553
    943.681    -19.2023    -333.456
    941.216     -11.617    -332.842
    938.573    -4.06647    -332.491
    112.153     27.8849      29.192
    109.957      35.523      30.205
     107.64     43.1376     31.0394
    111.027     88.7927     2.82574
    108.724     96.4099      3.6803
    106.379     104.019     4.47388
    108.452    -133.121     24.5543
    106.145    -125.505     25.4025
   -75.5498     163.851     99.2265
    757.261    -88.2541    -227.463
    755.036    -80.6218    -226.495
    752.218    -73.1055    -226.401
   -635.814     456.962     380.835
   -638.215      464.56     381.546
   -640.584     472.164     382.303
   -643.132     479.733     382.795
    111.045     23.0819    -17.6013
    108.841     30.7187    -16.5997
    804.543    -68.5364    -280.226
   -360.652     119.168     239.054
    939.086     -46.633    -325.773
    980.519    -15.4077    -337.766
    104.696    -113.132     72.6764
    102.029    -105.587     72.9925
    99.7803    -97.9587     73.9272
    97.6077    -90.3139     74.9759
    110.476    -3.55939    -3.96362
    108.227     4.06836    -3.02905
    201.462    -174.798     73.4901
    107.079     16.4998     44.6898
    917.365    -53.2131    -330.629
    925.859    -42.3182    -327.443
    108.979      67.608     45.8004
    106.491      75.189     46.3814
    72.1005     181.416     55.1721
    113.119    -200.243     38.2666
    907.129    -95.5652     -367.07
    918.052    -69.2177    -338.135
    94.7727    -263.807     22.2064
    101.323    -227.924     21.6713
    99.2915    -220.251     22.9284
     156.79     127.775      15.123
    154.545     135.405     16.0641
    149.673     150.588     17.3798
    147.171     158.166     17.9414
    144.494     165.712     18.2428
     99.963    -229.352       33.29
    97.6513    -221.734     34.1329
    111.367     7.00574    -25.6464
     109.14     14.6378    -24.6794
    106.775     22.2449    -23.9154
    96.5547    -262.297     11.2079
    -639.95     420.391     398.573
   -642.231     428.013     399.459
   -644.694     435.599     400.077
    121.957     102.487    -17.6446
    923.354    -57.7858    -353.298
    111.968     -2.1059    -15.3868
    109.846     5.54669    -14.2646
    107.544     13.1641    -13.4085
    103.861    -104.067     62.0712
    101.639    -96.4335     63.0454
    114.527     187.469     45.4938
    109.262    -158.331     26.6013
     107.24    -150.657     27.8722
    104.861    -143.055     28.6139
    112.952    -34.1899    -30.9739
    110.806    -26.5417    -29.8868
    108.453    -18.9345    -29.1073
    106.012    -11.3422    -28.4547
    141.654    -207.303     31.0502
    139.286    -199.699     31.8086
    136.809    -192.116     32.4053
    109.805    -108.648     39.3372
    107.672    -100.997     40.4424
    105.296    -93.3947      41.189
    945.711    -10.7358    -326.194
    943.023    -3.19391    -325.909
   -653.733     542.208     401.202
   -656.186     549.798     401.836
    781.662    -69.5972    -255.278
    216.657    -236.372      61.877
   -401.535     114.579     237.381
    906.523    -106.076    -344.967
    903.728    -98.5535    -344.838
     969.99    -18.6327    -339.707
    126.376    -145.745     42.5404
    107.102    -84.9696     48.1221
    104.854    -77.3417     49.0577
    111.582    -28.7119    -1.47601
    109.358     -21.079   -0.504333
    106.969    -13.4766     0.22467
     113.79      29.367     17.9794
    111.456     36.9781     18.7886
    109.093     44.5836      19.554
    106.777     52.2003     20.3906
     108.74     17.9861     33.5145
    114.481     56.0322     4.52179
    112.032     63.6207      5.1604
    109.841     71.2599     6.18085
     107.56     78.8814     7.06763
    70.5941     192.673     16.3107
    104.971    -194.932     44.1075
    102.891    -187.269     45.2928
    100.554    -179.659     46.0972
    976.395    -25.4457    -334.495
    947.478    -2.32074    -319.322
    107.984    -8.69171     46.8766
    105.666    -1.07764      47.708
     103.35     6.53711     48.5435
    1012.58    -107.115    -327.857
    1004.92    -84.4067    -326.391
    921.796    -52.3446    -324.078
    1005.79    -100.374    -333.632
    978.906    -16.8848    -326.521
    100.055    -245.471     24.9056
    98.0576    -237.794     26.2122
    217.557    -245.426     72.5773
    193.155    -169.518     79.0961
    190.605    -161.947     79.5864
    187.889    -154.411     79.8297
   -366.635     116.834     243.836
   -654.912     501.632     378.156
   -657.347     509.223     378.816
   -659.722     516.828     379.564
   -662.073     524.436     380.348
   -664.435     532.042     381.115
   -666.947     539.618     381.661
   -669.286      547.23     382.464
    -671.87     554.792     382.902
   -674.349     562.375     383.496
    113.166    -27.2401    -12.7665
    110.995     -19.597    -11.7173
    108.591    -11.9976     -11.011
    929.443    -58.9141    -317.029
    926.225    -51.4763    -317.528
    101.012    -254.513     35.6948
    98.6463    -246.908     36.4562
    96.3812    -239.284     37.3667
    109.925     42.4245     48.0475
    107.754     50.0697     49.0983
     105.55     57.7064     50.1001
    789.585    -65.7222    -270.822
   -639.369     447.033     384.948
    109.543    -44.0876     -26.645
    153.164     117.834     19.1341
     136.18     170.989     23.8416
    133.541     178.541     24.1996
   -662.511     474.773     367.767
    175.239    -231.835     50.0428
    978.321   -0.860168    -318.865
    975.545     6.66437     -318.71
    914.022    -79.2374    -334.725
    113.778     107.792    -11.8488
    118.178    -156.584     39.7854
     108.61    -126.182     42.6792
    106.403    -118.544      43.677
   -62.4188     159.517     100.754
    122.896    -155.659     46.7632
    117.783    -140.522      47.723
     107.95    -110.172     50.2239
    105.836    -102.518     51.3587
     103.49    -94.9095     52.1489
    -648.06     494.906     384.028
   -650.486       502.5     384.701
   -652.937     510.088     385.337
   -655.329      517.69     386.061
   -657.578     525.317     386.995
   -660.027     532.906     387.634
   -662.605     540.469     388.082
   -664.957     548.079     388.865
   -667.326     555.683     389.622
    -669.77     563.273     390.268
    110.689     46.0573     8.28375
    105.272    -129.159     65.0071
    102.836    -121.566     65.6651
    100.538    -113.947     66.5278
    112.561    -18.1293    -23.0325
    110.034    -10.5537    -22.5071
     107.93    -2.89752    -21.3585
    107.801     184.989     49.1805
   -662.494     517.446     361.835
    913.647    -63.1714    -326.758
    110.349     19.4627     22.2648
    110.398    -46.2421     1.88306
    108.161    -38.6119     2.83569
   -659.352     500.762     371.591
   -661.595     508.391     372.534
   -663.969     515.996     373.285
   -666.407     523.587     373.938
   -668.839     531.178     374.602
   -671.264     538.772     375.277
     -673.7     546.365     375.936
   -676.346     553.915     376.283
   -678.878     561.487     376.799
    968.159    -36.2899    -337.305
    966.067    -28.6312    -336.137
     101.54    -204.834     48.4043
    919.657    -67.7421    -349.396
    920.798    -69.8404    -320.445
    918.172    -62.2845    -320.066
    106.731     -26.238     50.1346
    104.526    -18.5995     51.1355
    98.8323    -263.011     28.2097
    96.8276    -255.333     29.5067
    109.557    -7.22241      35.572
    107.371    0.417725        36.6
    104.931       8.008     37.2521
     111.95    -44.7769    -9.45154
    109.838    -37.1224    -8.31567
    767.035    -66.7179    -245.384
    922.686    -61.3996    -313.391
    905.423     -123.59    -341.483
    902.415    -116.111    -341.672
   -633.389     406.699     386.119
   -635.837     414.288     386.759
   -638.215     421.893     387.504
   -640.581     429.497     388.265
   -642.862     437.119     389.153
    104.466    -185.799     33.9923
    102.275     -178.16     35.0123
    1001.62    -94.2838    -321.906
     993.36     -71.695    -321.339
   -415.611     117.567     248.086
    97.2631     -264.48     39.5195
    108.647     24.8758     51.2678
    106.593     32.5417     52.4904
   -656.076     484.106     381.545
   -658.519     491.695     382.192
   -682.815     567.623     388.867
    983.044    -74.8782    -322.964
    973.582    -44.4564    -319.915
   -661.522       449.6      370.08
   -663.709      457.24     371.105
    -666.15     464.831     371.756
   -651.499     485.003     388.313
   -678.147     568.538     395.771
   -637.836     448.495     373.584
   -640.268     456.089      374.25
   -642.684     463.684     374.937
   -645.173     471.264     375.516
   -380.969     119.771     254.164
   -383.593     127.326     254.544
    198.318    -223.828     43.2783
    196.032    -216.207     44.1577
    193.617    -208.612     44.8473
    191.201    -201.017     45.5339
    261.852    -294.272    -77.4671
    179.529    -149.143      85.362
    176.792    -141.611     85.5735
    174.339    -134.021     86.2079
    133.185    -237.815     60.2682
    266.412    -293.378    -70.7233
    125.109     183.796     29.6215
    113.533    -43.3055    -20.7452
    111.363    -35.6622    -19.6941
    109.162     -28.025    -18.6888
    100.215    -222.393     51.5578
    97.9849    -214.761     52.5199
    112.575     90.2575    -8.51776
    110.101     97.8411    -7.91614
    108.116     105.521    -6.59167
    109.639    -151.348     45.0531
    107.203    -143.757     45.7106
    105.128    -136.095     46.9037
     125.26     89.2612     51.1346
     969.23     4.26562    -314.418
   -658.895     484.714     363.745
   -661.101      492.35     364.743
   -663.575     499.934     365.346
   -665.898     507.547     366.169
   -670.793     522.727     367.453
   -673.433     530.278      367.81
   -675.991     537.845     368.287
   -678.533     545.418     368.789
    915.772    -77.7336    -345.768
     108.84     1.86646     25.1416
    106.721      9.5199     26.2685
    206.522     -248.75     69.8924
    180.043    -165.179     77.6008
    177.403    -157.628     77.9569
    174.735    -150.082     78.2726
    914.743    -88.3257    -324.289
    909.705    -73.1759    -323.218
    109.202    -135.296     52.9283
    106.682    -127.722     53.4609
    104.618    -120.056     54.6699
    108.491    -24.7318     39.1042
    106.288    -17.0928     40.1083
    109.631     28.5516     11.8286
    107.279     36.1594     12.6116
    57.5587     187.796     24.2944
    912.631    -96.8083    -331.672
    910.177    -89.2208    -331.041
    970.162    -70.4959    -324.119
    967.626    -62.9244     -323.61
   -662.939     490.829     375.656
   -687.429     566.719     382.045
    105.325    -43.8119     53.1655
    103.245    -36.1509     54.3505
   -644.859     412.519     373.417
   -647.256      420.12     374.134
   -649.669     427.716     374.826
   -652.118     435.305     375.465
   -654.489     442.908     376.219
   -656.981     450.491     376.795
   -659.322       458.1     377.594
   -661.776     465.688     378.224
   -664.227     473.276     378.861
    766.881    -82.8854    -254.132
    103.194    -203.349     37.2202
    100.982    -195.714     38.2082
    105.052     14.9413     55.3213
   -424.255      122.78     253.198
   -686.788     573.754     400.883
   -689.433     581.305     401.233
    977.325    -77.1604    -317.788
    898.621    -126.085    -337.908
   -691.286     572.872     394.233
   -693.935     580.422     394.575
   -660.331     424.465     372.692
   -662.538     432.101     373.689
   -664.865     439.713     374.507
    950.787    -25.8799    -327.209
    98.8863    -239.953     54.7017
    96.6783    -232.318     55.6966
   -391.561     116.534     252.131
   -394.309     124.065     252.327
    758.941    -86.7637    -238.613
    756.492    -79.1752    -237.975
    754.144    -71.5667    -237.187
   -637.258     396.711     389.771
    125.773     -221.97     44.1982
    136.297    -153.032     66.5798
    133.579    -145.494     66.8226
   -634.238     415.763     375.494
   -636.556     423.379     376.328
   -639.055     430.958     376.892
   -641.302     438.586     377.829
   -653.567     476.527     380.994
    113.687     65.1063    -6.02173
    111.362     72.7191    -5.19904
    109.108     80.3459    -4.27307
    74.5452      186.54     4.26276
    159.668     134.088     50.9044
    157.495      141.73     51.9518
    118.458     86.7668     54.7058
    116.447     189.006     34.7025
    132.284    -228.762     49.5659
    110.129    -23.2498     27.8956
    107.923    -15.6116     28.8947
    105.574    -8.00323      29.682
   -687.104     550.645     374.004
    981.372    -76.3671    -311.802
    165.904    -128.766     91.6254
    163.337    -121.201     92.0885
    166.229    -144.842     83.5831
    163.796    -137.248     84.2469
    911.924    -87.7175    -342.089
     801.96    -205.115    -270.425
     799.54    -197.521    -269.743
   -632.766     331.877      375.96
   -635.201     339.469     376.619
   -637.547     347.077     377.411
    -639.85     354.697     378.265
   -642.342     362.277     378.841
   -644.636     369.896     379.709
   -647.047     377.492     380.404
   -649.417     385.098      381.16
   -651.834     392.693     381.846
   -654.289      400.28     382.476
     101.63    -220.954      40.017
    99.6251    -213.278      41.312
   -425.362     105.264      256.67
    97.7848    -257.467     58.1826
    95.3809     -249.87     58.8879
    107.109    -42.3012     42.1731
    104.944     -34.657     43.2319
   -666.604     480.881     379.606
   -696.142     571.921     387.051
     101.93    -53.7068     57.5159
    -404.85     127.746      268.26
    758.103    -77.6983    -249.222
    110.502     3.35315     13.9695
     108.18     10.9667     14.7961
    106.082     18.6261      15.954
   -656.776     391.724     374.537
   -659.087     399.339      375.38
   -661.442     406.947     376.159
   -663.821     414.551     376.902
   -702.378     585.674     399.983
   -705.128     593.204     400.177
    955.206     -67.681    -314.717
   -403.127     129.244     257.178
   -633.517     364.007     391.892
   -635.966     371.595      392.53
   -638.203     379.225     393.483
   -640.495     386.847     394.354
    106.316      -10.18     58.0429
    104.012    -2.56281     58.8964
     101.49     5.01135      59.427
    968.819    -71.9202    -312.476
    965.971    -64.4097    -312.427
    958.254    -41.7146    -311.057
    866.694     -73.595    -282.883
    125.355    -140.198     72.5543
    122.904     -132.61     73.1908
    120.412     -125.03     73.7656
    117.789    -117.474     74.1473
    100.469    -64.3862     78.3568
    139.437     95.5233     31.2054
     137.32     103.177     32.3356
   -37.6646     152.875     74.3149
   -40.4029     160.408     74.5261
    112.514      47.576     -2.6474
    110.314     55.2155     -1.6394
    65.9921     191.771       9.505
    106.813     82.1619     64.7488
   -637.779     405.839     379.627
   -695.722     555.863     379.151
   -335.074     126.504     249.615
    973.136    -71.0739    -306.092
     967.31    -56.0786    -306.187
    108.982    -40.7728     31.3104
    106.724    -33.1467     32.2315
    201.121    -260.199     84.9059
    154.728    -115.981     97.2482
    144.415     152.982     68.3896
   -44.8251     159.541     67.9865
    877.182     -70.378    -281.003
    155.426    -131.981     89.7595
    152.697    -124.448     89.9844
    100.341    -238.507     43.2231
     98.372    -230.825      44.571
    163.112     137.085     28.7344
    160.818     144.704     29.6009
    937.594    -48.0864    -314.349
   -411.153     125.349     272.573
     156.08     124.153      54.967
    148.824     146.938     57.0193
    146.401     154.532     57.6958
    161.736     135.654     40.3331
    159.222      143.23     40.8746
   -629.067     299.164     378.018
   -631.496     306.757     378.686
   -633.879     314.359     379.424
   -636.138     321.987     380.343
       -617     175.848      386.48
   -619.418     183.444     387.165
    -621.68     191.069      388.08
   -624.064     198.671     388.815
   -626.504     206.262     389.467
   -628.952     213.851     390.108
   -704.512     577.187     392.567
   -653.082      359.01     376.589
   -655.483     366.608     377.299
   -657.778     374.227     378.166
   -660.139     381.835     378.935
    217.201    -209.736     48.2026
    908.144     -97.688    -338.308
    111.771     -21.767     16.6943
    109.596    -14.1226     17.7393
    107.265    -6.51086     18.5522
   -59.5692      155.49     59.8132
   -409.469      126.84      261.43
   -43.5492     150.561     79.2432
    104.958    -27.7465     61.1432
    102.773     -20.104     62.1746
    103.689    -52.2012     46.4858
    863.235    -83.5027    -278.629
    798.569    -215.012    -266.071
   -630.026     331.253     393.642
   -632.102     338.915     394.833
   -634.509     346.512     395.534
    -636.98     354.098      396.14
   -343.885     131.685      254.48
   -629.427     357.901      380.05
   -631.652     365.533     381.018
   -634.242     373.094     381.449
   -636.833     380.655     381.878
    -641.34     395.911     383.734
    959.549    -66.8295    -308.293
     954.23    -51.7329    -307.638
    949.345    -36.5532    -306.342
    152.966    -248.916     67.3694
    109.392    -112.212     79.6215
     106.78    -104.655     80.0178
   -702.009      553.47     383.487
    827.671    -66.3246    -218.761
    161.785     119.524     31.8829
    159.659     127.176     32.9996
    152.481     149.977     35.1665
    149.726     157.506     35.3528
    147.153     165.072     35.8095
    105.406    -50.7037     35.3948
    99.3881    -255.992     46.9232
    97.0908    -248.374     47.7861
    943.387    -72.3201    -304.931
    940.911    -64.7367    -304.331
    938.412    -57.1559    -303.766
    103.275     72.2368     68.8867
    855.983    -76.8556    -285.092
    853.686    -69.2374     -284.23
   -259.382     117.192     249.091
    106.601    -229.212     56.7394
    109.972    -245.849     66.8345
    157.875     125.666     43.9917
    150.818      148.49     46.3374
    148.285     156.062     46.8517
     145.52     163.591     47.0238
   -423.362     120.634     281.778
    111.444     30.0681     0.88031
    109.123     37.6816     1.70801
    1063.47    -20.9738    -354.816
    1061.05    -13.3782    -354.139
    -56.315     154.967      78.256
     936.49    -65.6033     -310.87
    934.047    -58.0117    -310.221
    930.566    -50.6252    -311.108
   -625.511     266.424     379.865
   -627.725     274.059     380.852
   -630.147     281.653     381.531
   -632.448     289.272     382.389
    144.115    -119.222     95.1832
     873.93    -80.2452    -276.443
    1054.11    -49.3373    -354.181
    1051.78    -41.7249    -353.363
    1049.03    -34.1956    -353.172
   -51.8076      155.85     84.9214
    -65.157     153.233     65.1803
    146.153    -110.752      102.46
   -644.385     311.139     377.518
   -646.934     318.709     378.008
   -649.357     326.303     378.687
   -651.736     333.905     379.427
    -654.14     341.503     380.134
   -656.449     349.121      380.98
    176.228    -240.873     60.8745
   -708.681     567.141     395.773
   -711.342     574.687     396.097
   -713.176     582.397     397.646
   -715.787     589.953     398.045
   -718.156      597.56     398.802
   -322.095      122.14     250.918
   -326.551     137.405     252.849
   -608.661     127.907     386.879
   -611.032     135.511     387.633
   -613.304     143.135     388.534
   -615.608     150.753     389.388
   -618.019     158.349     390.082
   -620.463     165.939     390.729
    137.982     159.791     63.1373
    135.228      167.32     63.3257
    110.643    -39.2864     20.1353
    108.415    -31.6544     21.1011
    215.935    -227.284     51.4384
     213.76     -219.64     52.4839
   -346.755     121.892     259.605
     950.13    -45.6288     -295.81
    95.3878    -266.008     50.3767
   -626.428     298.521     395.552
   -628.592     306.166     396.612
   -630.957     313.771     397.375
     -633.3     321.382     398.171
    103.805    -45.2706      64.549
    101.541    -37.6458     65.4609
    842.863    -72.5198    -286.604
    107.349     66.1277     57.0211
    105.001     73.7361     57.8091
    1062.39    -38.4847    -351.309
    1059.96    -30.8922    -350.641
    98.1113    -99.4468     85.0896
    95.6041    -91.8676     85.6434
    93.1201    -84.2859     86.2301
    91.0446    -76.6241     87.4211
   -49.2532     158.673     61.4383
   -630.634     340.364     383.373
   -633.006     347.967     384.125
   -644.939     385.976     387.782
    907.152    -115.183    -334.666
    904.648    -107.605    -334.109
     138.92     170.366      41.525
    250.103    -225.172     56.8128
    247.916    -217.532      57.838
    101.792     54.6479     71.8037
    99.4618     62.2597     72.6177
    62.4792     176.048     81.8349
    866.459    -116.308    -277.273
    863.987    -108.724    -276.667
    861.774    -101.089     -275.68
    859.517     -93.463    -274.757
    854.029    -78.3995    -274.351
    786.925    -202.316    -261.138
   -638.663     270.754     378.311
   -641.138     278.338     378.911
    -643.27     285.989     380.019
   -645.647     293.592     380.765
   -648.121     301.176     381.365
    931.314    -59.7083    -300.632
    1042.65    -36.6068    -348.972
   -626.719     248.888     383.192
   -629.138     256.483     383.876
   -705.808     543.495     387.239
   -434.039      117.38      279.62
    154.258     115.727     48.0125
    137.184     168.864     52.5881
    926.886    -60.5762     -307.18
   -714.374     564.864     400.984
   -716.961     572.425     401.418
   -330.755     127.351     256.001
     852.37    -86.7934    -281.065
    140.609    -152.186     72.9564
    137.949    -144.637     73.2855
    947.677     -71.479    -298.586
    100.902     -231.49     61.9424
    839.427    -82.4233    -282.311
    834.243     -67.302    -281.457
    109.995     12.4836     3.84589
    107.781     20.1204     4.83313
    53.4122     186.983     18.1625
    872.444    -97.8368    -273.532
    870.234    -90.2013     -272.54
    864.537    -75.1787    -272.442
    135.374    -114.026     100.153
    131.377    -107.902     112.132
   -615.538     125.398     390.344
   -617.982     132.988      390.99
   -620.426     140.578     391.636
    -622.87     148.168     392.283
   -355.703     127.046     264.263
    107.143     -49.202       24.33
    1048.32    -18.1956    -345.701
    806.792    -76.1661    -281.161
     -624.7     300.021     384.477
   -627.058     307.627      385.25
   -629.433     315.231     385.999
   -631.663     322.864     386.961
   -634.047     330.465     387.697
    151.954     107.207     40.3452
    129.884     175.502     46.0526
     927.59    -69.6699    -296.771
   -60.7857      154.09     71.6445
    -625.56     223.746     385.754
   -627.927     231.352     386.515
   -630.154     238.984     387.482
    951.898    -70.6514    -292.343
    949.853    -62.9838    -291.108
    -630.19     222.839     378.907
   -632.457     230.463     379.815
   -634.951     238.044     380.387
   -637.499     245.613      380.88
   -639.865     253.219     381.643
   -641.993     260.871     382.755
    98.2769     44.7288     75.9785
    55.9563     173.608     85.8224
    105.915     48.5482     60.0094
    103.643     56.1715     60.9094
    64.3625     177.578     70.9897
   -728.812      594.31     396.675
   -731.026     601.944     397.661
    100.219    -55.2032     68.6154
    208.818    -220.609     45.1747
    206.524     -212.99     46.0433
    204.156    -205.385     46.8021
   -286.518     115.298     267.748
     120.46     170.172     73.0107
    800.184    -75.1959    -218.514
    876.051    -130.567     -271.61
     873.83    -122.934    -270.633
    871.284    -115.362    -270.138
    868.937    -107.754    -269.348
    1032.46    -48.9952    -341.038
    109.052     88.3478     99.5822
   -333.689     117.545     261.036
   -339.429     132.558     261.069
    93.9362    -260.544     79.7551
    867.658    -141.443    -274.648
    865.443    -133.808    -273.662
     863.14    -126.191    -272.809
    848.346    -80.6748    -269.122
    804.907      -74.27    -211.529
     122.82    -102.672     117.368
    925.937    -78.0626    -303.475
    782.604    -229.693    -253.046
    777.089    -214.635     -252.68
    1044.63    -28.1497    -341.782
    111.018    -12.6829     6.21204
    108.653    -5.07782     6.97479
    106.531     2.57477     8.09625
   -281.839     135.837     242.293
    254.889    -224.234     63.8895
    242.343    -186.348     66.6384
    855.803    -119.558    -279.396
    850.932    -104.376     -278.08
    848.754    -96.7343    -277.041
    840.938    -74.0583    -275.816
    903.076    -125.212     -331.32
    129.454    -139.395     78.6162
    127.072    -131.793     79.3545
    124.758    -124.178     80.1923
    122.191     -116.61      80.658
    119.552    -109.059     81.0151
    837.953    -100.013    -279.383
    835.656    -92.3921    -278.519
     97.173     -241.45     65.7983
    116.142     169.325     66.6247
    113.378     176.853     66.7988
    123.639     173.117     50.4479
    77.3608     160.504     122.585
    783.788     -83.054    -188.236
    104.558     30.9819     63.1116
    102.316     38.6111     64.0566
     101.68     11.9584     77.5995
    99.4026     19.5807     78.4918
     96.924     27.1634     79.0867
    94.4954      34.756     79.7555
   -623.311     274.924      387.38
   -625.688     282.528     388.125
   -628.003     290.143     388.962
   -717.808     538.821     396.755
   -720.094     546.442     397.633
   -722.515     554.036     398.314
   -725.155     561.589     398.671
   -727.702     569.159     399.165
   -730.058     576.765     399.941
    -732.33     584.389     400.841
   -246.323     112.844     250.509
    -376.67     127.522     278.411
    199.965    -241.967     64.4562
    175.256    -166.118     70.5214
   -342.313     122.763     266.174
     240.31    -237.482     65.3337
    877.111    -155.729     -269.19
    874.894    -148.093    -268.206
    872.543    -140.485    -267.423
    942.886    -65.5105    -287.781
    940.144    -57.9773    -287.575
    773.395    -224.591    -248.773
    825.012    -197.114     -277.23
    822.476    -189.542     -276.72
     820.16    -181.927    -275.884
    868.852    -166.577    -272.034
    866.634    -158.943    -271.053
    864.302     -151.33     -270.24
    111.352    -103.759     86.7791
    108.744    -96.2015     87.1829
    -317.62     123.018     257.536
    112.305    -37.7996     8.96375
    110.106     -30.162     9.97205
    107.713    -22.5624     10.6935
    114.236    -97.4467     122.565
    111.938    -89.8266     123.428
    109.509    -82.2339     124.097
    107.065    -74.6443     124.743
    104.543    -67.0703     125.273
    1034.36    -40.5536    -333.965
    846.321    -147.947    -278.941
    841.414    -132.772    -277.677
    839.252    -125.125    -276.612
    836.721    -117.552    -276.095
    834.374    -109.944    -275.305
    781.243    -82.3917    -205.633
     198.93     -232.94     53.5529
    117.984     170.847     55.7194
    115.505     178.431     56.3137
    96.0329    -258.972     69.2224
    93.6526     -251.37     69.9627
   -621.429      174.98      379.93
   -623.832     182.578     380.638
   -626.144     190.194     381.479
   -628.535     197.795     382.204
   -630.958     205.389      382.88
   -633.402     212.979     383.527
    99.5294     170.655     87.2133
    -403.23     126.844     383.966
    1020.77    -96.2757    -325.101
    130.666        -266     84.6552
    87.4745    -262.972     83.8299
    251.233     -234.18     67.8527
     233.66     -181.14       71.69
    91.2251     81.3701     114.113
    64.4173     164.875     121.335
    103.314     13.4395     66.3848
    101.128     21.0799     67.4135
    120.677     -111.16      109.94
    115.851    -95.9691     111.324
    113.594    -88.3409     112.246
    111.047    -80.7715     112.741
    108.513    -73.1996     113.254
    106.006    -65.6225     113.806
    857.043    -144.684    -276.715
    854.688    -137.077    -275.937
    852.374    -129.462    -275.098
    847.525    -114.273    -273.748
    166.963    -160.836     76.1492
    164.286    -153.292     76.4507
     100.31    -5.61041     80.6825
    98.0522     2.01556     81.6034
    44.3112     169.003     95.8619
   -418.302      80.061     381.268
   -423.202     95.2389     382.544
    891.436    -83.7231    -268.446
    889.088    -76.1129    -267.658
    886.258     -68.599    -267.583
    899.452    -72.9198    -265.964
    212.005     -171.57     75.4504
   -624.621     257.368     390.555
   -626.908     264.989     391.433
   -308.995     133.938      260.92
     114.96      83.759     76.7971
    86.2014      174.95     85.3942
    838.321     -63.076    -216.641
    85.6492     69.8863     128.871
    83.6172     77.5566     130.126
    878.282    -180.866    -266.608
    876.093    -173.227    -265.585
    873.712    -165.625    -264.846
    846.779     -82.143    -257.809
    1030.85    -50.4719     -329.79
    116.961     92.2198     84.0159
    108.872    -47.7021     13.2566
   -610.574     119.463      379.79
   -612.962     127.064     380.519
   -615.192     134.696     381.482
   -617.593     142.294     382.191
    -620.03     149.886     382.848
   -622.474     157.476     383.495
   -624.918     165.066     384.141
    153.771    -257.988     77.9291
     100.08    -90.9902     92.2616
    97.4745    -83.4322     92.6696
    753.464    -94.8033    -164.925
    751.456    -87.1284    -163.634
    749.031    -79.5349    -162.959
    746.627    -71.9376    -162.254
    743.917    -64.3981        -162
    808.943    -169.148     -270.32
    806.529    -161.552    -269.629
    784.581    -93.2328    -263.742
    1012.17    -91.0554     -319.94
    772.687    -242.028    -244.711
    769.555    -234.573    -245.082
   -326.379     128.209     262.473
    -328.26     135.909     263.952
    779.333    -83.9272    -194.823
   -406.933     116.888     387.862
   -411.923     132.048     389.005
    870.171    -191.688    -269.234
    867.892    -184.064    -268.343
    865.526    -176.459    -267.582
   -425.225     77.5429     384.661
   -272.425     121.544     247.693
    102.177    -4.08356     69.8135
    99.8801     3.53485     70.6765
    884.451    -77.0218    -274.514
    882.048    -69.4241    -273.807
    852.338    -188.274    -277.714
    849.946    -180.674    -276.992
    847.569    -173.071    -276.246
    845.308    -165.446    -275.329
    842.912    -157.845    -274.612
    838.096    -142.652    -273.213
    815.513    -74.4565    -268.265
   -363.152     123.264     280.511
    104.546      -60.16     143.173
    102.036    -52.5834     143.721
   -273.503     110.941     269.099
    155.847    -148.038      81.861
    153.233     -140.48     82.2571
    81.9758     -265.21     89.3288
    99.0752    -23.1507     83.9659
    96.6462    -15.5583     84.6342
    241.167    -246.544     75.9718
    219.379    -178.193     82.0952
    216.884    -170.613     82.6658
    214.283    -163.055       83.08
    211.752     -155.48     83.5985
     -625.9     239.818     393.773
   -628.242     247.428     394.569
    112.471    -105.861     115.695
   -310.602     116.324     263.653
    87.5215     71.4144     118.006
    877.179    -198.383    -263.131
    874.851     -190.77    -262.313
    860.596    -177.425    -274.872
    858.321    -169.803    -273.976
    855.964    -162.196    -273.201
    853.658    -154.577    -272.351
    828.961     -78.728    -266.268
   -600.441     63.8038     378.584
   -619.992     124.525     383.756
   -622.436     132.115     384.402
    -624.88     139.705     385.049
    116.699      85.261     65.7393
    88.0419     176.472     74.4858
    99.6805     69.2101      90.835
    97.4543     76.8444      91.804
    998.357    -70.7155    -313.949
    995.832    -63.1417    -313.423
    988.641    -40.3434    -311.276
       1021    -62.7937    -321.359
    890.055    -101.292    -265.379
    887.781    -93.6693    -264.481
    882.185     -78.627    -264.236
     879.38    -71.1082    -264.124
    89.1028    -78.1656     98.1797
    86.4549    -70.6161      98.524
    183.576    -256.731     76.8512
     144.59    -135.266     87.3663
    142.019    -127.702     87.8243
    203.757    -166.279     81.1436
    201.091    -158.731     81.4623
   -329.528     118.361     267.189
    182.876    -247.638     66.4448
    897.983    -90.5084    -263.025
    895.973    -82.8338    -261.737
    892.747    -75.3954    -262.246
   -437.972     98.0905     392.226
   -440.435     105.677     392.844
   -442.909     113.261     393.447
   -445.382     120.846      394.05
   -395.726       61.44     388.243
   -398.223     69.0198     388.811
   -410.608     106.938     391.798
   -420.541     137.267     394.151
    105.578    -36.8544     71.4313
    103.163    -29.2592     72.1189
    100.786    -21.6545     72.8657
      98.56    -14.0222     73.8339
    815.518    -209.367    -268.267
    805.445    -179.065    -266.121
    744.727    -89.6083    -159.954
    742.028    -82.0688    -159.685
    739.413    -74.5127    -159.292
    736.937    -66.9274    -158.693
   -378.423     126.018      289.45
   -617.611     191.867     394.098
   -619.775     199.512     395.158
   -622.164     207.113     395.886
   -624.602     214.704     396.541
    882.908    -94.6245    -271.687
    880.901    -86.9493    -270.395
    877.886    -79.4697    -270.593
    875.075    -71.9521     -270.49
    820.862    -82.6378     -250.98
    759.435    -246.948    -237.043
    93.7525    -47.2994     149.362
   -287.275      124.38     257.256
    203.121    -150.264     88.7244
    991.807    -73.1602    -310.005
    989.054    -65.6314    -309.817
    985.006    -50.2874    -307.281
   -316.457     114.015     268.625
    97.7017    -40.7205     87.0468
    95.6553     -33.053     88.2809
    1025.22    -95.4048    -318.531
     105.43     87.6377     94.2253
    78.3253     171.085     101.008
    826.109    -78.1264    -284.116
    823.793    -70.5116    -283.281
    906.438    -79.6212    -259.896
    903.814    -72.0648    -259.514
    859.717    -194.898    -271.063
    857.319    -187.297    -270.348
    849.106    -198.139    -273.121
    101.416     70.7114     79.7675
    99.2109     78.3499     80.7681
     147.67    -158.871     79.1384
    145.259    -151.275     79.8337
    142.536    -143.738     80.0677
    98.3995     51.6607     94.0505
    96.2053     59.2992     95.0659
    127.523    -124.797     97.9109
    124.768    -117.266     98.0993
    86.1614     53.8473     121.107
    100.117    -61.0283     136.623
    893.417    -134.071    -263.819
    891.331    -126.411    -262.643
    888.907    -118.818    -261.968
    886.508    -111.217    -261.254
   -395.046      36.205     390.097
   -406.852     74.2365     393.941
   -417.489     104.428     395.252
   -419.942     112.016     395.886
    897.045     -107.99    -259.302
    894.672    -100.387    -258.551
    889.246    -85.3133    -258.054
    224.159      -252.2     78.0811
    192.681    -153.472     86.9171
    189.962    -145.936     87.1561
    1011.04    -75.1391    -313.087
   -341.078     131.074      272.26
    980.131    -77.7713    -300.008
    977.369    -70.2441    -299.832
     116.56    -111.968     103.851
     114.11    -104.379     104.489
    111.695     -96.784     105.177
     109.26    -89.1905     105.838
    106.763    -81.6115     106.405
    104.099    -74.0649     106.727
    101.508    -66.5043     107.154
    96.8453     34.0558     96.8605
    94.6439     41.6949     97.8665
    133.865     -138.53     85.1392
    131.334    -130.958      85.656
    100.048     53.1448     82.8582
    97.7921     60.7711      83.782
   -436.706     72.9703     394.947
   -439.174     80.5556     395.558
    102.081    -46.7696     75.6291
    814.624    -85.0216    -246.575
    886.423    -127.373    -269.902
    884.315    -119.718    -268.758
    881.828    -112.135    -268.175
    879.505    -104.521     -267.35
    791.686    -158.716    -260.055
    771.998    -98.0215    -255.086
    769.558    -90.4312    -254.435
     740.71    -99.6252    -156.524
    746.979     -88.006    -170.255
    744.437    -80.4356    -169.753
    741.841    -72.8758    -169.331
    85.0654    -42.0948     154.406
    194.663    -145.015     94.1084
    187.164    -122.277     95.8007
    95.7007     75.3397     102.841
    77.8217     59.1202     126.665
    822.381    -88.0866    -280.258
    807.037    -88.8306    -230.534
    87.9244    -53.0276     95.5887
    46.7437     168.319      113.09
    123.189    -125.647     91.5023
    120.698    -118.064     92.0804
    118.277     -110.47     92.7594
    115.713    -102.904     93.2291
    113.142    -95.3393     93.6873
    892.191    -151.611    -260.523
    890.037    -143.963    -259.447
    867.656    -75.7283    -254.201
    865.206    -68.1398    -253.563
    904.998     -97.202    -256.912
    902.747    -89.5746    -255.981
    897.043    -74.5533    -255.893
    98.8036     35.6005     86.1265
    96.5543     43.2303     87.0614
    697.688      -304.1    -195.455
    788.754    -82.0804    -180.892
    91.8348    -55.7441     142.266
    89.1487     -48.202     142.554
    1005.64    -77.3579    -307.437
    1000.74    -62.1793    -306.163
    998.285    -54.5922    -305.535
     995.65      -47.04    -305.172
   -401.064     33.8643     394.828
   -337.947     114.389         282
   -344.153     121.241     277.083
   -346.759       128.8     277.491
    962.749    -67.3633    -289.932
      181.5    -140.688     92.5363
    178.993    -133.108     93.0898
    176.587    -125.511     93.7917
    89.5002     14.1565     104.742
    87.2582     21.7856     105.687
    160.659    -264.706     83.8552
    104.773    -90.0701     99.2024
     102.21     -82.504     99.6719
    99.5871    -74.9495     100.054
    97.6964     18.0852     89.5988
    95.3519     25.6943     90.3921
    48.6152     169.847     102.227
   -314.481     122.472     275.807
    885.181    -144.915    -266.628
    883.046    -137.265    -265.526
    866.008      -84.12    -260.898
    996.852    -72.1713    -302.544
    98.3843    -56.7241     79.5358
    898.275    -133.118    -256.635
    895.849    -125.525    -255.962
    893.409    -117.935    -255.311
    784.888     -86.265    -245.394
    88.2712    -3.38477     108.034
    85.9479     4.23047     108.859
    91.0668     -69.712     105.344
     739.91    -90.5526    -167.077
    737.388    -82.9784    -166.547
    734.927    -75.3921    -165.926
    785.247    -161.139    -255.947
    808.689    -87.3459    -241.722
    953.707    -62.2283    -285.409
    98.7711    -7.07306     92.0367
    96.3964     0.53009     92.7851
    94.0449     8.13989     93.5692
    84.1213    -63.0027     99.3346
    76.2507    -36.9128     159.262
    798.465    -83.6036    -225.318
    80.3369    -43.0217     147.413
    186.088    -139.788     99.3204
     183.68     -132.19     100.021
    178.761    -117.016     101.268
    175.937    -109.501     101.352
   -343.327     112.173     287.674
    101.828    -59.5316     125.519
    91.8254     65.3483     106.479
    893.223    -176.776    -258.144
    891.226    -169.099    -256.837
    888.813    -161.503    -256.145
    864.372    -85.6019    -249.684
    858.595    -70.5971    -249.706
   -47.9203     156.612     90.6701
    985.277    -59.4643    -297.508
    821.085    -105.641    -277.067
    818.832     -98.012    -276.137
    903.794    -114.738    -253.582
    901.585    -107.101    -252.588
    167.937    -120.299     98.8912
    165.255    -112.756     99.1848
     886.44    -170.037    -263.914
    884.206    -162.407    -262.958
    881.905    -154.789    -262.101
    857.386    -78.9028    -255.754
    89.3521    -28.5398     110.482
     87.015    -20.9293     111.286
     84.477    -13.3581     111.793
    -402.62     68.1578     382.308
    218.933    -263.617     93.3547
    167.326     -104.28      106.51
    99.7413     -32.252     94.3234
    97.3068    -24.6586     94.9845
    95.0067    -17.0408     95.8433
    783.192    -87.7585    -234.272
    781.597    -171.084    -251.976
    979.669    -61.7245     -292.17
    793.816    -84.5149    -232.191
    899.039    -158.338    -254.657
    896.981    -150.672    -253.439
    894.561    -143.076    -252.757
    877.195    -89.9974    -248.615
    874.665    -82.4229    -248.095
    872.401    -74.7981    -247.184
    869.834    -67.2326    -246.719
    892.013    -194.314    -254.825
    889.961    -186.647    -253.598
      93.14    -61.2349     112.672
    90.4471    -53.6941     112.949
    85.6426    -38.4987     114.365
    855.174      -57.45    -218.982
    852.612    -49.8837    -218.511
     71.704    -37.8042     152.538
     905.11    -139.847    -250.788
    902.749    -132.241    -250.018
    900.307    -124.651     -249.37
    887.967    -86.7251    -246.316
    755.547    -86.3263    -157.583
    753.351    -78.6882    -156.571
        751    -71.0804    -155.788
    748.537    -63.4924    -155.168
    156.713    -107.521     104.445
    885.262    -187.568    -260.548
    883.062    -179.929     -259.54
    911.072    -78.7127    -253.042
   -53.6504     154.328     95.8297
    841.722    -191.516     -279.78
     836.82     -176.34    -278.507
    832.022    -161.141    -277.081
    829.493    -153.568    -276.561
    824.665    -138.377    -275.181
    822.302     -130.77    -274.414
    819.745    -123.202    -273.935
    817.496    -115.574        -273
    781.949    -98.3925     -213.11
    779.233    -90.8563    -212.866
    88.0011     55.3691     110.194
   -411.415      73.342     387.193
   -426.163     118.866     390.946
     865.88    -54.1905    -216.781
    61.7781    -34.0035     169.384
    87.2782    -56.6373     135.527
    89.6775    -44.6154     102.441
    212.372    -266.064      97.282
    777.961    -181.026    -247.978
   -420.716     71.5185     373.438
   -427.585     94.3797     376.062
    909.526    -96.3144    -250.215
    907.333    -88.6755    -249.198
    904.222    -81.2167    -249.538
    787.379    -86.9378    -228.081
    758.669    -113.347    -224.534
    756.117    -105.779    -224.048
    753.344    -98.2535    -223.887
    888.669    -204.199      -250.4
    848.507    -82.9651    -241.623
    81.8807    -48.4659     118.175
    752.073    -96.2369    -153.351
    746.728    -81.1472    -152.734
    743.956    -73.6221    -152.573
    741.392     -66.054    -152.104
    898.105    -175.819    -250.925
    895.707    -168.221    -250.211
    863.315    -69.6718    -242.726
    758.333    -97.2755    -216.509
    881.772    -197.482    -256.339
    844.271    -83.7955    -247.888
    63.1177    -32.5799     157.735
   -419.938     78.5795     392.481
   -429.847     108.914     394.868
   -434.817     124.078      396.04
    833.438    -186.232     -274.14
    828.572    -171.049    -272.815
    821.188    -148.288    -270.953
    903.842    -157.396    -247.554
    901.458    -149.795    -246.818
    877.001    -73.8963    -240.381
     874.46    -66.3256    -239.878
    910.442    -121.504    -248.013
    908.439    -113.828    -246.714
    906.052    -106.225    -245.983
    88.4539    -62.1534     105.742
      839.9    -54.6976    -210.045
    661.739    -300.814    -171.941
    78.5832    -51.4341      140.56
    774.075     -191.02    -244.356
    770.042    -103.049    -203.455
   -436.255     99.5881     381.131
    142.061    -104.647     114.302
    54.6454    -36.5626     172.466
    152.621    -101.415     116.284
    150.059     -93.849     116.756
     915.53    -77.8388     -246.45
    759.834    -138.488    -221.962
    757.305    -130.915    -221.442
    754.579    -123.378    -221.212
    86.7175      37.819     113.409
    84.4127     45.4358     114.261
    911.705    -146.625    -245.296
    909.588    -138.969    -244.165
    907.202    -131.368    -243.433
   -336.745       73.06     375.784
    775.168    -91.6533    -218.878
     839.05    -95.2097    -232.605
    834.296    -80.0044    -231.115
    828.282    -68.5266    -190.596
    59.1473    -42.5878     161.233
    56.4937    -35.0393     161.569
   -424.535     68.4479     395.055
    80.1529    -56.8732      111.36
    904.832    -182.571    -245.237
      902.6    -174.938    -244.277
    900.167    -167.346    -243.615
    873.284    -83.8549    -236.504
     742.88    -91.1312    -149.055
    916.208    -103.073    -244.593
    914.191    -95.3997    -243.316
