1871.61 1509.99  3989.6
953.933 213.795 3538.53
 955.44 209.749 3545.27
1809.76 1431.01 3986.47
2375.26 1358.34 3817.71
2382.95  1357.6 3815.56
1818.74 1437.72  3988.3
1826.48 1437.28  3986.3
1811.55 1466.62 3987.67
964.366  216.11  3546.9
1835.47 1444.02 3988.14
 1843.2 1443.56 3986.14
1850.95  1443.2 3984.19
2392.02 1364.81 3817.64
2399.75 1364.32 3815.63
2407.51 1364.02 3813.71
2415.23 1363.49 3811.67
956.949 205.711 3552.01
1786.22 1443.11  3989.3
1820.56 1473.46 3989.56
1828.28 1472.95 3987.53
1904.48 1563.92 4013.08
1912.24 1563.59 4011.14
2424.23  1370.3 3813.54
 2431.9 1369.46 3811.34
 1861.2 1457.14 3989.86
1868.93 1456.63 3987.83
1876.67 1456.23 3985.86
1802.92  1449.3 3989.09
1810.66 1448.87  3987.1
965.928 212.378 3553.81
1894.64 1469.59 3989.47
1902.37 1469.13 3987.47
1837.27 1479.64 3989.34
2355.42 1378.91 3833.95
2363.18 1378.62 3832.04
2370.95 1378.36 3830.14
2378.72 1378.15 3828.27
2386.57 1378.32  3826.6
2394.31 1377.92 3824.64
2402.06 1377.55 3822.68
1855.19  1562.8 4014.13
1862.95 1562.47  4012.2
 1870.7 1562.15 4010.27
1911.37 1475.92 3989.33
 1827.4 1455.22 3986.97
2410.92 1383.56 3824.13
2418.68 1383.22 3822.19
2426.43 1382.85 3820.24
2434.19 1382.55 3818.32
1986.33 1559.83 4011.11
1928.06 1482.03 3989.07
1836.38 1461.91 3988.78
1862.97  1492.6 3990.98
1845.38 1468.68 3990.64
 1853.1 1468.17 3988.61
1411.41 309.069 3537.15
 988.69 234.565 3608.35
1404.75 315.701 3542.44
1412.47 315.158  3540.4
 1862.1 1474.91 3990.44
 1869.8 1474.26 3988.34
1896.43 1505.17 3990.65
1400.64 317.501 3525.62
1400.73 337.414 3555.78
1402.15  313.46 3532.36
 1878.8  1481.1 3990.22
1403.22 319.603 3535.63
1895.53 1487.35 3990.04
1420.71 304.933 3542.08
1421.11 294.553 3545.44
1406.35 312.154 3549.45
1414.08 311.668 3547.43
1421.79 311.088 3545.37
1426.13 310.574 3562.88
1415.66 308.063  3554.4
1423.34 307.294 3552.24
1411.84 318.262 3570.49
1419.57  317.79 3568.48
1409.12 315.361 3560.05
1401.01 326.336 3558.77
1405.32 325.618 3576.17
2932.93 557.663 3243.38
1403.77 329.468 3569.33
1937.04 1558.71 4012.17
2934.01 563.828 3246.67
1961.53 1564.71 4010.09
2621.39 850.973 3500.12
2629.18 850.822 3498.28
2644.74 850.474 3494.58
2652.53 850.338 3492.75
2660.32 850.158  3490.9
2598.13 852.027 3505.95
1854.29 932.538 3719.31
716.124 1036.97 4035.03
723.815 1036.28  4032.9
1863.38 939.894 3721.47
 1871.1 939.313  3719.4
931.824 184.144 3620.45
2380.49 903.229  3584.2
1880.13 946.268 3721.35
2381.82 910.823 3588.25
765.053 1048.69 4030.73
932.858 190.055  3623.6
2391.88 923.683 3593.35
1714.06 979.667 3777.81
1721.82 979.338 3775.88
1729.58  979.03 3773.96
1737.33 978.666 3772.01
1745.09 978.341 3770.08
1752.84 977.995 3768.14
1760.61 977.757 3766.25
1768.36 977.391  3764.3
1776.11 977.028 3762.35
1783.87 976.702 3760.42
1791.62 976.368 3758.49
1799.39 976.072 3756.57
1807.14 975.743 3754.64
1814.89  975.39 3752.69
1822.65 975.071 3750.77
1830.41 974.777 3748.85
1838.16 974.407  3746.9
1845.92 974.105 3744.98
1853.68 973.751 3743.03
1861.44 973.469 3741.13
 1869.2 973.175 3739.21
1876.96 972.853 3737.28
1884.72 972.552 3735.37
3086.73 831.065 3384.08
2385.32 930.885 3598.94
1715.57 988.258 3782.39
1723.29 987.763 3780.37
1730.99 987.116 3778.27
932.136 173.261 3623.54
2386.61 938.249 3602.87
1740.06  994.29 3780.34
1755.47 993.062 3776.17
2231.97 902.913 3617.42
2239.71 902.479 3615.43
2247.42 901.859 3613.34
1764.54 1000.22 3778.23
1772.23 999.522  3776.1
2388.96 951.667 3610.02
 1928.3 908.946 3689.16
2256.46 908.916 3615.35
2264.17  908.27 3613.24
1781.29 1006.62 3778.13
1788.98 1005.92    3776
933.163 179.137 3626.67
 2688.5 845.236 3472.35
2696.28 845.037 3470.49
2686.98 849.249  3465.6
2702.51 848.668 3461.77
1937.16 914.941  3690.6
2273.21 915.314 3615.24
2280.91 914.664 3613.14
2288.66 914.268 3611.17
1798.02 1012.99 3778.01
1805.73 1012.36 3775.92
2292.67 925.294 3691.71
2300.31 924.284 3689.42
943.708 182.095 3635.39
 1907.3 922.947 3701.89
1915.07 922.661 3699.98
1938.29 921.413 3694.05
 1814.7 1018.96 3777.68
1043.05 1029.86 3957.44
2297.68 921.173 3613.09
2305.41 920.736  3611.1
1432.24 275.493 3560.21
2134.64 907.793 3623.31
2142.35  907.23 3621.26
2150.06 906.657 3619.19
2157.81 906.285 3617.24
2296.43 946.805 3703.18
699.897 887.503 4028.25
1908.58 930.265 3705.79
1916.32 929.829 3703.81
1931.76 928.726  3699.7
1013.32 1038.57 3969.11
1021.14 1038.63 3967.39
 1028.9  1038.3 3965.45
1036.62 1037.78 3963.42
 1052.1 1036.89 3959.43
 1059.8  1036.3 3957.35
1067.59 1036.14 3955.51
2182.66 901.673  3618.4
 2314.4 927.453 3612.93
1776.59 915.673 3708.34
1931.61 908.519 3669.39
 1954.8 907.081 3663.35
1895.53 912.946 3689.42
1934.49  912.34 3680.32
708.866 894.116 4030.02
2166.82 913.089 3619.11
2174.56 912.711 3617.15
2623.47  875.53 3504.31
2631.26 875.373 3502.47
2639.01 875.026 3500.53
2646.75 874.599 3498.55
2654.47 874.102 3496.52
2662.23 873.745 3494.58
2669.98 873.403 3492.64
2677.66  872.67 3490.49
2685.42 872.315 3488.54
2693.17 871.996 3486.62
2700.93 871.672 3484.69
2708.69 871.343 3482.75
2856.08 865.221 3446.11
1006.72 1045.52 3974.57
   1061 1043.11 3960.99
2323.43 934.413 3614.88
2331.17 933.976 3612.89
2338.87 933.332 3610.79
 1895.6 945.401 3717.38
2199.39 907.972 3618.25
2207.11 907.422  3616.2
   1933 916.464 3673.62
2599.68 848.175 3512.79
1904.55 919.866 3691.36
1427.67  306.72 3569.72
1819.28 923.719 3712.74
2298.68 959.663 3710.04
2183.55 919.423 3618.97
2191.29 918.984 3616.98
1881.68 1044.58 3777.28
1889.43  1044.2 3775.32
1897.16  1043.7 3773.29
1434.42 287.972 3566.86
2654.08 846.505  3499.6
 1819.1 935.395 3710.07
1826.82 934.877 3708.04
1834.48 933.976  3705.8
733.396 900.347 4028.07
741.082 899.612 4025.92
748.808 899.113  4023.9
1903.02 923.747 3684.53
1934.03 922.396 3676.78
 903.97 165.596 3644.27
919.483 164.943 3640.41
 927.24 164.617 3638.48
2216.18 914.642 3618.29
2223.91 914.125 3616.26
2231.62 913.536 3614.19
2239.35 913.067 3612.18
1828.35 930.952 3714.84
1936.71 925.064  3687.1
1019.55 1042.15 3960.37
1027.36 1042.14  3958.6
1035.08 1041.63 3956.58
1042.75  1040.8 3954.38
 1025.7 1045.31  3951.4
2146.07 947.879 3662.47
2347.91 940.347 3612.77
2355.61 939.717 3610.68
2363.33 939.163 3608.63
2371.09  938.87 3606.71
1007.92 1052.35 3978.21
1062.28 1050.44  3964.9
2200.35 926.116 3619.03
2208.07 925.571 3616.98
2215.81 925.189 3615.02
 708.04  1048.1 4033.82
1544.48  1261.1 3977.04
1843.56 941.187 3707.89
1851.31 940.866 3705.96
 1889.1 952.889 3723.13
 1904.6 952.192 3719.24
2012.97 946.332 3691.52
1428.94 314.013 3573.61
2292.22 967.402 3715.92
1828.47 1053.05 3794.09
1875.03  1051.2 3782.57
3096.15 828.331 3455.53
708.927 1065.84 4034.38
1845.09 937.277  3714.7
1852.75 936.431 3712.49
2248.38 920.017 3614.13
1928.71 936.648 3686.14
2381.08 931.937 3581.72
1907.04 934.122 3698.96
1922.54 933.349 3695.03
1930.23 932.678 3692.92
1427.99 295.919 3572.85
1860.33 947.737 3707.86
1020.44 1059.95 3960.96
1035.97 1059.37 3957.14
2224.79 931.852 3616.81
2232.52 931.378  3614.8
2240.25 930.909  3612.8
1052.93 1054.35 3959.84
2383.79 934.755 3592.11
1433.78 271.646 3567.05
725.622 1071.95 4034.13
733.415 1071.83 4032.31
2139.51  955.05 3668.05
2380.16 946.057 3608.79
1861.86 943.853 3714.69
1869.51  942.92 3712.43
2289.03 903.739 3614.45
2296.74 903.168 3612.39
1422.34 320.928 3579.05
 1430.1 320.654 3577.15
2257.36 926.719 3615.94
2265.12 926.381    3614
2272.83 925.827 3611.95
2014.43 954.662 3695.96
2107.35 949.849 3672.31
2115.04 949.136 3670.17
 2122.8 948.845 3668.26
2130.61 948.857 3666.51
1569.07 1267.68 3975.28
2382.31 938.987 3585.48
1018.04 1065.54 3983.49
 1072.3 1063.07 3969.87
2627.67 874.208  3521.4
2635.41 873.801 3519.42
2643.18 873.566 3517.54
2650.94 873.246 3515.61
741.491 1060.66 4033.49
1869.27  954.18 3709.54
2249.27 937.809 3614.72
   2257 937.316  3612.7
2385.07 942.091 3596.02
1061.93 1061.12  3961.7
1429.29 303.348 3576.81
2009.89 954.075 3677.86
 2017.7  954.01 3676.07
2064.24 952.063 3664.49
2550.11 877.523 3540.73
2557.89 877.326 3538.87
2573.45 876.948 3535.16
2581.23 876.749 3533.29
2589.01 876.561 3531.44
2596.74 876.084 3529.43
 2604.5 875.791 3527.51
2612.24 875.345 3525.52
2619.98 874.925 3523.54
1887.48 956.306 3716.05
1895.32 956.468 3714.38
1903.08 956.128 3712.45
2011.38 949.912 3684.53
2096.84 947.091  3663.7
1878.57 950.033 3714.47
742.473 1078.95 4034.35
750.162 1078.24 4032.21
2305.79 910.198 3614.38
2313.51  909.67 3612.34
2321.21 909.025 3610.24
1022.66 1072.63 3967.72
2288.18 956.229  3635.3
2295.95 955.982 3633.41
2303.68 955.528 3631.41
2281.83 932.606 3613.81
2289.57 932.156 3611.81
 2297.3 931.698 3609.81
2784.25 876.709 3553.36
2792.01 876.392 3551.43
2799.76 876.067  3549.5
2815.31 875.626 3545.75
 2823.1 875.479 3543.92
2830.82 874.945 3541.88
2838.67 875.128 3540.22
1899.99 913.895 3773.49
2164.02 993.945 3759.94
2272.64 989.512 3732.98
2288.13 988.723 3729.04
2647.86 842.964 3508.36
1906.82 964.851 3725.99
 2100.8 957.116 3677.94
1452.06 274.181 3573.78
1459.78  273.63 3571.73
1026.97 1071.94 3985.14
1065.75 1070.31 3975.49
1442.65 277.708 3568.53
1450.43 277.534 3566.68
2386.17 948.391 3599.38
2266.03 944.248 3614.64
2273.74 943.652 3612.56
 2384.6 952.065 3592.45
1024.26 1069.11 3974.74
2557.41 849.224 3541.68
2596.32 848.322 3532.41
1716.44 973.918 3755.21
1747.47  972.62 3747.48
1755.23 972.321 3745.57
   1763 972.052 3743.67
1778.51 971.351 3739.78
1801.77 970.337 3733.97
1825.05  969.42 3728.21
1832.77 968.915 3726.18
1840.52 968.525 3724.22
 1848.3 968.305 3722.34
1863.78 967.501  3718.4
 1871.5 966.935 3716.34
1872.15 1079.46 3799.39
2596.62 837.419 3535.49
2604.39  837.14 3533.59
2026.71 960.891 3677.98
2034.46 960.484    3676
2042.22 960.207  3674.1
2049.97 959.857 3672.16
2057.68 959.256 3670.08
2073.14 958.311 3666.06
2080.94 958.194 3664.24
2088.69 957.875 3662.31
 774.62 1084.06 4030.04
2330.25 916.041 3612.22
2337.93 915.306 3610.08
1888.58 962.593 3719.41
1904.14 962.216 3715.69
2074.78 955.029  3673.2
2082.52 954.592 3671.21
2090.25 954.094 3669.19
 2105.7 953.069 3665.13
 2121.2 952.349 3661.23
1031.63 1079.27 3969.51
1039.44 1079.23 3967.73
2306.33 938.623 3611.75
2314.05 938.102 3609.71
   3091 830.182  3401.4
782.707 1072.95 4031.26
2312.54 961.526 3632.85
2320.32 961.309 3630.98
2328.09 961.069 3629.09
2335.85 960.742 3627.16
2343.61 960.482 3625.26
2351.38 960.194 3623.35
2366.89 959.528 3619.48
2374.67 959.336 3617.63
2382.42 958.987 3615.68
1430.39 309.632 3580.16
1864.92 936.005 3728.29
1872.58 935.107 3726.06
1880.35   934.9 3724.19
1695.91 977.889 3771.49
1703.65 977.468 3769.51
1711.37 976.901 3767.45
1719.11 976.519 3765.49
1726.86 976.131 3763.52
1734.61 975.753 3761.56
1742.38 975.518 3759.68
1750.15 975.271 3757.79
1757.89 974.856 3755.81
1765.65 974.517 3753.88
1773.39 974.127 3751.91
1781.17 973.937 3750.05
 1788.9 973.424 3748.02
1796.68 973.243 3746.17
 1804.4 972.744 3744.15
 1812.2 972.629 3742.33
1819.95 972.292 3740.39
1827.72 972.008 3738.48
1835.46 971.602 3736.51
 1843.2  971.18 3734.53
1850.97 970.922 3732.63
1858.73 970.646 3730.73
1866.46 970.151 3728.71
1874.25 969.992 3726.86
1881.98  969.52 3724.86
 1694.3 981.332 3764.43
1702.02 980.814  3762.4
1709.78 980.479 3760.46
1725.29 979.794 3756.58
1733.05 979.486 3754.66
 1740.8  979.14 3752.72
1771.83 977.845    3745
1787.34 977.183 3741.13
1795.09 976.855  3739.2
1810.61 976.203 3735.34
1818.36 975.877 3733.41
1857.15 974.245 3723.75
1903.94 973.708 3712.92
2282.76  950.59  3614.5
 2290.5 950.166 3612.52
2298.25 949.775 3610.55
2172.94 1000.25 3761.54
2180.66 999.725 3759.51
2188.48 999.738 3757.76
2196.24 999.422 3755.83
   2204 999.156 3753.93
 2219.5 998.422 3750.03
 2227.2  997.78 3747.93
2234.95 997.415 3745.98
2242.75 997.316 3744.17
2266.07 996.655 3738.54
2281.53 995.691 3734.51
1033.29 1076.09  3976.7
1041.05 1075.79 3974.78
1594.71 1280.28 3976.73
1602.49 1280.11 3974.88
1610.27 1279.87    3973
1437.54 280.476 3580.65
1445.34 280.395 3578.85
1476.52 279.975  3571.6
1900.28 972.158 3731.64
2009.01 968.365 3705.02
2094.24 964.263 3683.51
1035.92 1078.48 3986.87
1043.69 1078.22 3984.97
1051.45  1077.9 3983.05
1059.21 1077.62 3981.14
739.719 1025.19 4032.37
1905.48 969.886 3719.78
2014.04 965.108 3692.63
 2060.5 962.721 3680.82
2068.23 962.259 3678.82
   2347 922.476 3612.14
 2354.7  921.82 3610.03
2323.06 944.937  3611.6
2330.78 944.412 3609.56
2338.52 944.014 3607.59
1842.33 1087.63 3810.77
815.745 924.445 4023.35
2566.46 856.315  3543.7
1435.99 284.279 3573.79
1443.71 283.789 3571.77
1451.54 283.881 3570.06
1889.35  941.68 3726.04
1897.17 941.719 3724.31
1904.91 941.301 3722.33
1997.82 936.377 3698.62
 1697.3 985.818 3775.71
1705.01 985.217 3773.64
1712.71 984.562 3771.53
 1892.3 914.584 3775.61
2360.29 966.495 3624.96
2393.41 919.765 3600.15
1695.78 989.793 3768.94
1703.51  989.32 3766.93
 1711.2 988.587 3764.78
1905.02  979.91 3716.23
 2175.2  961.05 3644.68
2182.96 960.774 3642.77
2190.73 960.496 3640.87
2198.49 960.218 3638.96
2206.31 960.242 3637.22
2307.23 956.447 3612.35
2314.98  956.09 3610.41
2013.43 937.045 3761.23
1049.91 1081.76 3976.21
1057.67 1081.43 3974.28
1065.44 1081.19  3972.4
2568.02 852.566  3550.6
1013.59 1027.42 3972.06
1021.39 1027.34 3970.26
1029.09 1026.71 3968.17
1036.84 1026.33 3966.21
1052.35 1025.67 3962.34
1898.76 976.142 3724.87
1906.55 976.022 3723.05
2030.68 970.944 3692.23
2046.21 970.354  3688.4
2053.95 969.951 3686.43
2347.53 950.865 3609.49
1431.81 317.746 3584.49
2363.73 928.795    3612
2371.48 928.411 3610.03
 2379.2 927.899    3608
2971.66 876.059 3510.84
1893.72 979.346 3737.23
2079.93 971.808 3691.04
2087.69 971.523 3689.13
2006.75 942.771 3700.27
2014.56 942.793 3698.53
1454.22 286.544 3580.37
1461.99  286.25 3578.46
1477.53  285.78 3574.69
2569.82 837.556 3560.38
2212.89 1005.32 3755.46
2251.67 1003.63 3745.78
2259.43 1003.33 3743.86
1721.78  991.76 3773.61
1729.48 991.144 3771.52
1737.17 990.396 3769.37
1715.67 976.176 3784.85
1723.42 975.805 3782.89
1731.18 975.539 3780.99
1738.91 975.063 3778.98
1746.68 974.767 3777.07
1754.45 974.552  3775.2
1762.22 974.304 3773.31
1769.98 973.964 3771.37
1777.75 973.724 3769.48
1785.48 973.264 3767.48
1793.29 973.229 3765.71
1801.01 972.703 3763.67
1808.75 972.279 3761.69
1816.53 972.058 3759.81
1824.26 971.599 3757.81
1832.05 971.451 3755.97
1839.77 970.956 3753.95
1847.51 970.511 3751.96
1855.28 970.245 3750.06
1863.09  970.26 3748.31
1870.84 969.893 3746.36
 1878.6 969.558 3744.42
1886.38 969.359 3742.56
2215.18 966.243 3638.66
2222.93  965.93 3636.74
 2230.7 965.639 3634.82
2238.46 965.367 3632.92
2246.23 965.079 3631.01
2254.02 964.948 3629.19
2261.77 964.603 3627.24
2269.48 963.992 3625.16
2323.97  962.82 3612.24
2841.38 864.601 3486.62
2849.14 864.251 3484.68
2864.66  863.64 3480.84
2872.41 863.288 3478.89
2571.37  833.77 3567.26
3101.82 822.009 3413.07
1720.26 995.741 3766.84
2386.84 926.925 3605.73
1619.16 1286.02 3974.52
1626.89 1285.59 3972.53
1634.63 1285.18 3970.55
1642.43 1285.08 3968.74
1650.22 1284.95 3966.92
1657.98 1284.61 3964.98
1665.75  1284.4 3963.11
1673.51 1284.09 3961.19
3092.58 826.528 3408.34
 704.36 976.371 4031.16
710.712 930.008 4031.37
 718.41 929.347 4029.26
2155.38  943.74  3667.4
2163.11 943.268 3665.39
2170.89 943.112 3663.55
2178.65 942.775 3661.62
2186.44 942.626 3659.78
1045.94 1033.71 3968.38
1061.37 1032.57 3964.26
780.905 1037.31 4030.04
2224.47 962.033 3643.55
2239.99 961.463 3639.74
2247.76 961.164 3637.82
2255.52   960.9 3635.92
2263.29 960.654 3634.03
2271.08  960.52  3632.2
2278.86 960.303 3630.33
2302.17 959.577 3624.67
 2356.5 957.482 3611.26
2364.23 957.004 3609.25
2372.02 956.847  3607.4
2379.81  956.72 3605.58
1461.35 269.958 3578.67
2015.92 951.259 3768.81
2587.02 852.511 3527.51
 2594.8   852.3 3525.64
2602.55 851.978 3523.71
2016.38 978.523 3699.79
2024.12 978.083 3697.79
2039.62  977.38  3693.9
1106.01  975.81 3987.48
1113.79   975.6 3985.61
1121.55 975.314  3983.7
1129.22 974.489  3981.5
1136.97 974.115 3979.54
2011.25 981.182 3711.85
2019.13 981.599 3710.32
2057.92 979.982 3700.67
2065.69 979.736 3698.78
2073.39 979.114 3696.69
3106.06 820.976 3430.31
2015.96 950.782 3702.78
1103.59 1133.35 3984.28
1111.36 1133.09 3982.38
1126.87  1132.4  3978.5
714.306 1001.24 4033.76
1431.95 305.896 3587.07
2278.45 970.636 3626.95
2286.21  970.32 3625.02
2293.97 970.004  3623.1
2301.73 969.718 3621.19
2309.47 969.287  3619.2
 2317.3 969.401  3617.5
1870.48  1114.6 3819.88
897.745 162.016 3653.01
913.259 161.364 3649.15
921.023 161.082 3647.24
1746.27 997.781 3771.55
1753.94 996.968 3769.36
2269.83 934.695 3664.66
2277.54 934.095 3662.59
1717.09 984.304 3789.18
 1724.8 983.698  3787.1
1732.49 983.007 3784.97
1890.49 948.911 3795.67
1752.43 1000.96  3762.6
713.424 983.527 4033.22
 721.11 982.798 4031.07
2388.15 934.407 3609.72
1875.66 927.413 3739.74
1070.29 1038.89 3965.88
2195.29 948.576  3661.2
2203.09 948.483 3659.39
2210.85 948.192 3657.48
1478.07 276.179 3578.47
1485.84 275.965  3576.6
 2820.1 903.005 3560.35
2827.87 902.778 3558.47
 2835.6 902.287 3556.45
2843.39 902.152 3554.62
2851.15 901.815 3552.69
2874.44 900.955 3546.96
 2882.2  900.65 3545.04
706.102   840.3 4028.01
735.167 935.814 4029.19
 742.86 935.121 4027.06
750.612 934.767 4025.12
1099.47 983.079 3993.11
2287.76 966.531  3631.9
 2295.5 966.079  3629.9
2311.02 965.483 3626.06
2318.81 965.323 3624.22
2326.57 965.057 3622.32
2334.29   964.5 3620.27
2342.07 964.291  3618.4
2349.88  964.29 3616.64
2357.64 964.009 3614.74
2365.39 963.604 3612.76
2373.17 963.449 3610.92
2380.82 962.491 3608.66
1125.96  1114.5 3977.85
1883.17 938.354 3734.92
2051.36 987.154 3706.25
2170.29 1029.83 3779.07
2178.06 1029.55 3777.16
2185.82 1029.24 3775.24
2193.47 1028.28 3772.97
2201.21 1027.86 3770.99
2208.99 1027.71 3769.15
2216.74  1027.3 3767.18
1908.39 961.209 3732.94
1110.77 1104.38 3984.86
1126.28 1103.71 3980.99
1134.04 1103.37 3979.06
1097.07 1140.72 3989.96
1120.35  1139.8  3984.2
1135.86 1139.12 3980.33
738.767 1007.08 4031.61
746.498 1006.61  4029.6
 2326.2 975.594 3619.05
2255.52 942.226 3672.19
2263.23 941.647 3670.13
2286.49 940.605  3664.3
1856.19 1122.26 3827.48
1871.66 1121.37 3823.48
1741.59 990.346 3787.13
1749.29  989.73 3785.05
1763.02  1004.2 3771.46
1770.73 1003.59 3769.37
2848.55 867.588  3514.9
2856.33 867.421 3513.05
 2864.1 867.176 3511.16
 2871.9 867.096 3509.36
 906.75  168.83 3654.89
 1876.2 956.593 3803.28
1883.98 956.362  3801.4
1761.49  1008.1 3764.64
1769.17 1007.33 3762.47
1455.88 283.376 3587.58
1463.55 282.533 3585.37
1471.32 282.259 3583.47
1479.11 282.143 3581.65
1890.88 937.769 3732.85
 1898.7 937.766  3731.1
1999.33 932.379 3705.38
2920.97 898.971 3535.36
707.977 876.359 4029.45
 715.68 875.726 4027.35
707.064  858.47  4028.8
714.776 857.886 4026.74
2860.07 908.141  3554.3
2867.82 907.791 3552.36
2891.09  906.83 3546.58
 2142.3  958.32 3678.69
2150.02  957.82 3676.67
2297.45  951.89 3640.12
2305.21  951.61 3638.21
2390.49  947.75 3616.83
712.483 965.474 4032.49
720.218 965.027 4030.49
727.945 964.532 4028.47
735.693 964.156 4026.51
 2029.3 995.057 3715.74
2037.05 994.671 3713.77
 2044.8 994.312 3711.83
1072.61  1052.2 3972.97
1103.93 1122.58 3987.43
1111.68 1122.22 3985.48
1119.42 1121.82 3983.51
1134.96 1121.29 3979.71
2085.16 989.802  3775.3
2100.71 989.346 3771.54
2108.46 988.969 3769.59
2116.26 988.928 3767.81
2124.03 988.648  3765.9
 722.82 846.539 4027.82
730.637 846.559 4026.08
1901.87 968.606 3738.64
2010.59 964.761 3711.99
763.224 1012.89 4029.43
1322.28  1222.2 3985.96
 2297.7 922.019 3679.32
 2225.8 1034.46 3769.24
2233.45 1033.55 3766.99
1766.05 996.223 3784.99
1030.64 1022.92 3975.04
1038.37 1022.42 3973.02
1779.76 1010.56 3771.33
1787.51 1010.21 3769.39
1795.17  1009.3 3767.15
2353.78 903.926 3609.39
2361.52 903.477 3607.39
2369.27 903.097 3605.43
1096.49 1112.05 3992.47
1104.27  1111.9 3990.63
1119.77 1111.17 3986.73
946.764 174.244 3648.99
 1865.2  1129.1 3829.36
1872.92 1128.56 3827.32
2241.24 949.952 3679.83
2248.98 949.517 3677.84
1778.23 1014.46 3764.52
1785.93 1013.84 3762.43
 2884.5 862.433 3494.47
2892.27 862.177 3492.58
758.767 924.056 4026.54
723.812 864.879 4028.71
731.488 864.094 4026.53
 739.31  864.14  4024.8
1776.64 968.125 3832.27
1457.19 290.823 3591.55
1487.99 288.229 3583.14
2388.74 912.425 3615.78
2314.08 957.663 3639.68
2321.85 957.396 3637.78
2329.61 957.112 3635.88
2337.37 956.789 3633.95
2345.12 956.434    3632
2352.91 956.287 3630.16
2360.68 956.044 3628.28
2368.45 955.791 3626.39
 2376.2  955.44 3624.44
2383.94 955.007 3622.45
 732.38 881.862 4027.11
740.174 881.751 4025.29
1907.56 943.796 3732.55
 2008.3 938.962 3707.13
2898.87 906.618 3544.71
2906.63 906.353 3542.81
2914.41  906.11 3540.92
762.364 995.299 4028.95
1097.43 1130.09 3993.19
1895.26 975.495 3744.07
2011.58 970.442 3715.02
2112.54 966.862 3690.27
2120.26 966.346 3688.24
2128.05 966.211 3686.41
 2135.8 965.836 3684.45
2132.95 994.975 3767.52
2140.69 994.542 3765.53
2148.49 994.486 3763.74
2156.25 994.179 3761.82
1012.98 1068.63 3995.79
1020.74 1068.37 3993.89
1028.53 1068.21 3992.05
 1067.3 1066.53 3982.37
747.355 852.796 4025.89
1323.65 1230.02 3990.13
1892.92  911.42 3745.49
 1396.1 1229.57 3982.97
2880.18 863.041    3477
2887.91 862.552 3474.99
777.293 965.973 4027.59
1898.48 917.891 3766.73
2007.04 913.137 3739.59
2291.14 929.231 3684.92
1733.89 978.371  3791.4
1741.67 978.149 3789.52
 1749.4 977.683 3787.52
1757.13 977.225 3785.52
 1764.9 976.959 3783.62
1772.66 976.652  3781.7
 1780.4 976.229 3779.71
1788.16 975.919 3777.79
1795.92  975.62 3775.87
1803.68 975.314 3773.95
1811.46 975.088 3772.08
1819.24 974.947 3770.24
1826.95 974.339 3768.16
1834.73 974.114 3766.29
1842.46 973.664 3764.29
1850.21 973.297 3762.34
   1858 973.181 3760.52
1865.74  972.75 3758.53
 1873.5 972.452 3756.61
1881.31 972.402 3754.83
1790.49 1001.93 3782.76
2242.47 1040.41 3768.89
2250.17 1039.75 3766.79
761.452 977.416 4028.31
2289.57 932.882 3677.97
2297.29  932.38 3675.95
1047.43 1029.54 3975.06
1055.13  1028.9 3972.95
1920.05 1053.23 3764.21
1927.81 1052.93 3762.29
1758.77 973.904 3792.64
1774.31   973.4 3788.86
1782.02 972.816 3786.79
 1789.8 972.613 3784.92
1820.85 971.455 3777.28
1844.13 970.518 3771.51
1875.15 969.219 3763.79
1890.56 967.935 3759.59
2280.33 937.426 3673.26
2288.02 936.729 3671.13
2295.78 936.388 3669.19
775.474 930.231 4026.32
783.195 929.703 4024.28
1804.19 1016.23 3769.08
1794.85 1020.15 3764.04
2105.96 973.973 3695.82
2234.68 957.112  3685.4
1090.84 1137.14 3998.71
2379.53 917.101 3611.14
756.928 888.198 4025.22
1037.47 1074.64 3993.72
   1053  1074.1 3989.92
1060.75 1073.76 3987.98
2918.36 864.685 3497.53
2949.35  863.15 3489.69
1895.72 914.796 3756.18
748.328  871.03 4026.72
756.017 870.318 4024.58
1397.48 1237.44 3987.17
1799.55 1009.05  3784.8
1807.28 1008.57 3782.79
2390.02 919.783 3619.71
1778.01 975.957 3836.45
1793.35 974.317 3832.06
 1801.1  973.94  3830.1
1839.91 972.449 3820.52
1847.68 972.226 3818.64
1855.37  971.52 3816.51
1863.08 970.943 3814.44
1870.82 970.472 3812.44
1450.53 297.442 3596.83
1458.28 297.081 3594.88
1908.69 950.242 3735.99
1932.34 1091.54 3773.98
1936.75 1059.39 3763.98
1892.41 933.837 3739.65
1900.13 933.325 3737.62
2008.29 920.267 3743.39
   1437 1252.67 3977.61
2002.76 913.973 3722.25
3100.43 827.489 3472.87
1404.76 1247.04 3981.63
1142.88 988.549 3967.69
1735.37 986.823  3795.9
1743.09 986.275 3793.85
1750.77 985.495 3791.68
1890.26 978.934 3756.56
2014.16 985.165 3722.87
2091.71 981.813 3703.51
 2099.4 981.137  3701.4
799.985 936.351 4024.31
778.185 983.745 4028.17
2259.14  1046.4 3768.58
2266.89 1046.05 3766.63
1901.62 929.189 3744.31
2284.25 947.166 3687.34
1767.64 979.974 3794.12
1798.66  978.61 3786.36
1806.42 978.292 3784.44
1814.17 977.973 3782.51
1829.69  977.32 3778.65
1837.45 977.007 3776.72
1852.96 976.331 3772.85
1860.72 976.046 3770.94
1868.47 975.699    3769
   1884 975.112 3765.17
1064.11 1035.59 3974.77
2221.76 940.557 3669.44
 2229.5 940.167 3667.47
2237.23 939.653 3665.44
2244.97 939.262 3663.48
2252.72 938.915 3661.53
2260.49 938.637 3659.63
 1510.8 1259.91 3974.55
1046.46  1081.4 3995.57
1870.01 1156.59 3844.02
2273.77 944.568 3678.82
1894.01 949.704 3776.55
2220.39  964.75 3692.99
2228.14 964.418 3691.05
1893.62 960.125 3773.21
 2919.5 871.199 3501.01
2927.28 871.009 3499.15
2935.02 870.591 3497.17
2942.79 870.334 3495.28
 2005.5  916.98 3732.75
2884.02 904.378 3518.59
803.552 1007.43 4026.63
1904.87 1043.15 3771.24
 1912.6 1042.63 3769.21
1920.38 1042.44 3767.35
1816.28 1015.34 3784.64
   1824 1014.83 3782.61
1467.31 304.059 3596.85
3098.81 830.857 3465.77
2288.24 957.345 3701.66
1794.73 982.188 3836.25
1802.43 981.536 3834.15
1817.76 979.822 3829.72
 1825.5 979.425 3827.75
1833.26  979.14 3825.84
2066.92 1019.57 3796.44
2074.66 1019.13 3794.45
1930.18 1066.49 3769.52
1937.92 1066.04 3767.52
1445.87 1258.75 3979.09
1453.69 1258.75 3977.33
1461.47 1258.56 3975.47
1469.27 1258.47 3973.67
1910.28 1099.41 3783.45
1413.69 1253.42 3983.27
1421.44 1253.09 3981.34
2260.34 1053.26 3772.23
2268.11 1053.01 3770.34
1041.25 1026.27 3983.96
1048.93 1025.51  3981.8
2015.23 991.278 3726.13
2077.39 989.305 3711.02
2085.13 988.882 3709.04
1759.85 992.751 3793.79
1767.56 992.193 3791.74
1895.66 965.091 3747.42
1903.33 964.277 3745.23
2012.04 960.381 3718.55
2898.39 897.205 3511.25
1887.07 967.367 3778.83
2277.77 954.814 3693.18
1504.17 1266.69 3979.92
1519.78 1266.56 3976.33
 1527.5 1266.04  3974.3
 1761.4 988.937 3800.65
1769.07  988.12 3798.46
2267.26 952.026 3684.55
2011.89 940.899 3754.39
2189.16 945.552 3670.23
2196.91 945.188 3668.28
2204.68 944.954  3666.4
2212.41 944.443 3664.37
2220.15 944.049  3662.4
2227.85 943.396  3660.3
 2235.7 943.614 3658.66
1125.37 1085.82 3980.35
1880.94 964.316 3787.85
 1888.6 963.462 3785.64
 2206.1 972.427 3700.59
2213.85  972.05 3698.63
1929.36 1049.14 3769.17
1937.14 1048.94 3767.31
1944.83 1048.22 3765.16
2215.21 947.826 3675.07
2269.38 944.821 3661.17
2277.16 944.626 3659.31
2877.84 901.071 3527.48
2885.59 900.684 3525.51
   1904 942.784 3751.56
1872.49 1170.77 3851.58
1042.75 1022.17 3990.67
1761.52 976.993 3803.18
1769.24 976.463 3801.14
1777.01  976.17 3799.23
1784.76 975.821 3797.28
1792.51 975.459 3795.33
1800.22 974.873 3793.26
1807.97  974.53 3791.32
1815.76 974.356 3789.47
1823.53 974.132  3787.6
 1831.3 973.859  3785.7
1839.05 973.496 3783.74
 1846.8 973.122 3781.79
1854.58 972.944 3779.94
1862.35 972.714 3778.06
1870.05  972.06 3775.95
1877.87 972.088 3774.21
1504.07 278.144 3583.14
1511.86 278.031 3581.32
1888.93 952.654 3788.77
1903.74 953.966 3748.63
2012.36 949.555 3721.67
2281.73 964.792 3707.39
 1832.9 1021.01 3784.15
1887.79  1047.5 3768.18
1013.42 1058.49 3999.27
1067.63 1055.72  3985.5
1819.21 988.163 3834.17
1826.92 987.562 3832.09
1834.63 986.949 3830.01
2091.49 1025.98 3794.59
2099.24 1025.64 3792.65
2106.99 1025.28  3790.7
2114.69 1024.64  3788.6
2122.44 1024.23 3786.63
 2130.2 1023.92 3784.71
2137.95  1023.6 3782.77
2145.69 1023.16 3780.78
2161.19 1022.42 3776.88
1057.91 1032.17 3983.59
2384.81  902.64 3601.67
1906.72 945.667 3761.99
1114.38 1004.32 3983.13
1122.05 1003.48 3980.92
1439.47 1266.82 3985.15
 1478.1 1264.34 3975.04
1908.19 1074.78 3779.21
1923.64 1073.78 3775.17
1931.44 1073.69 3773.36
1407.27  1261.4 3989.29
1430.44 1259.84 3983.19
1919.28 1106.22 3785.32
1927.05 1105.94 3783.42
1942.54 1105.17 3779.49
1950.32 1104.98 3777.63
1791.98 997.789 3789.45
2271.22  962.01 3698.77
2055.36 997.381  3720.6
2063.06 996.741  3718.5
2070.81 996.354 3716.54
1536.42 1272.36 3975.91
 1544.2 1272.17 3974.05
1552.02 1272.21 3972.32
 1567.5 1271.39 3968.36
 2891.8 904.185 3516.73
1779.76 979.234 3809.75
1787.47 978.645 3807.68
 1795.2 978.218  3805.7
1802.95 977.817 3803.73
 1810.7 977.481 3801.79
1818.46 977.132 3799.85
1826.21 976.807 3797.92
1833.97 976.513    3796
1841.73 976.164 3794.06
1849.49 975.862 3792.14
1857.25 975.546 3790.22
   1865 975.227 3788.29
1872.76 974.889 3786.35
1880.52 974.586 3784.43
2013.21 967.098 3722.13
2260.72 959.305 3690.19
1103.35 1093.96 3989.96
1111.12 1093.72 3988.07
1118.84 1093.14 3986.01
1134.36 1092.53 3982.17
1880.94 1065.65 3770.72
2182.64 952.937 3675.93
2252.33 949.317 3658.19
2298.97 947.921  3646.9
2184.07 980.504 3710.17
 2191.8 980.006 3708.15
2199.53 979.527 3706.13
 2686.5 873.297 3592.17
2725.35 872.032 3582.71
2771.81 869.624 3570.89
2779.67 869.856 3569.25
2787.43  869.57 3567.34
2795.19 869.251 3565.42
2818.37  867.76 3559.35
2261.59 1060.42 3776.05
2269.33 1060.01 3774.07
 1114.7 993.458 3986.23
1122.37 992.625 3984.03
1130.13 992.321 3982.11
1137.88 991.988 3980.18
2193.17 955.847 3684.62
2200.93 955.533 3682.69
2208.66 955.053 3680.68
1953.88 1055.31 3767.19
1961.61 1054.82 3765.17
1969.31 1054.19 3763.07
2743.64 874.588 3589.45
2751.39 874.255 3587.52
2766.85  873.29 3583.49
 2774.6  872.94 3581.55
1810.29 1000.46 3796.25
1817.98  999.77 3794.13
1881.32 1055.16 3774.03
1896.77 1054.18 3769.99
1481.84 285.075 3592.11
1489.59 284.743 3590.17
1497.36 284.477 3588.27
1505.15 284.373 3586.46
1512.84 283.632 3584.31
2296.85 923.862 3708.74
1762.87 984.722  3807.3
1770.58 984.097 3805.21
1886.77 978.312 3775.77
1894.53 978.024 3773.86
 1051.7 1028.68 3992.38
1865.84 1177.47 3856.91
1781.34 975.638 3816.73
 1789.1 975.348 3814.82
1796.85 974.972 3812.86
1804.58 974.468 3810.84
1812.26 973.702 3808.67
1820.03 973.458 3806.78
1827.78 973.135 3804.85
1835.59 973.089 3803.07
1843.31 972.542 3801.02
1851.13 972.612  3799.3
 1858.9 972.363 3797.41
1866.55 971.403 3795.15
1874.41 971.689 3793.54
2301.85 920.432 3696.26
1959.28 1111.55 3779.38
1061.09 1062.99 3991.13
2154.71  1030.1 3782.73
2275.17 971.968 3712.97
1899.31 916.685 3803.42
 1882.4 959.999 3794.45
2896.14 903.706 3534.26
2903.89 903.339 3532.31
2911.64  902.94 3530.34
2320.41 911.911 3705.99
2708.66 903.928 3576.55
2716.41 903.566  3574.6
2724.16 903.239 3572.67
2731.92 902.913 3570.74
1917.16 1081.43    3781
1924.93 1081.17  3779.1
1940.42 1080.38 3775.17
1948.18 1080.03 3773.23
1036.51 1018.51 3999.37
1900.15 952.788 3767.54
1448.48 1273.67 3987.04
1494.83 1270.65 3974.89
1502.65 1270.64 3973.13
1510.41 1270.33  3971.2
1518.17 1270.02 3969.28
1424.02 1267.85 3989.21
1431.74  1267.3 3987.16
1808.81 1004.67  3789.6
1816.47 1003.76 3787.36
1899.83 963.621 3764.42
1898.31 967.597 3757.65
2014.74 963.189 3728.94
1560.92 1278.46 3973.89
1576.44 1277.83 3970.04
1584.19 1277.48  3968.1
1592.02 1277.55 3966.38
1868.09 999.592 3829.72
1781.15 987.209 3814.01
1788.86 986.611 3811.93
1812.38 1075.76 3791.93
1889.93 1072.37 3772.55
2414.99 884.537 3659.66
1107.83 1011.51 3988.72
1131.03 1010.18 3982.74
 1138.8  1009.9 3980.83
2452.54 1214.11 3821.08
2734.36 878.882 3584.61
2742.11 878.509 3582.65
2749.85 878.105 3580.68
2765.26 876.843 3576.49
2025.42  1004.9 3731.64
2033.28 1005.18 3730.03
2041.03 1004.79 3728.06
2048.78 1004.45 3726.12
1096.81 1101.22 3995.59
2152.86 961.383 3687.46
2160.58 960.828 3685.41
2168.33  960.51 3683.48
2176.08 960.097  3681.5
2169.76  988.02 3717.69
2177.51 987.662 3715.74
 2250.4 977.017 3712.04
2258.14 976.605 3710.06
2265.87 976.115 3708.05
2246.43 966.968 3697.79
2254.17 966.543 3695.81
1835.27 1034.59 3791.39
1881.98 1033.62 3780.33
1889.63 1032.66 3778.06
2003.55  912.57 3758.84
2388.39 923.109 3612.59
2015.76 981.652 3729.89
1100.35 1000.78 3993.65
1108.16 1000.76 3991.88
 1820.4 1064.27 3792.94
2278.31 1066.68 3775.87
2298.24 931.842 3712.99
1970.51 1061.05 3766.73
 1827.1 1007.23 3796.35
   2768 879.867    3587
1887.35 918.275 3788.23
2778.03 873.162 3562.12
2785.81 872.996 3560.27
2793.58 872.744 3558.38
2801.37 872.603 3556.55
2816.85 871.739 3552.58
2824.65 871.668 3550.78
2832.34 870.961 3548.65
2840.13 870.814 3546.81
2847.98 871.024 3545.17
2268.65 979.381 3718.68
2893.37 900.507 3523.66
2901.15 900.337 3521.81
2908.79 899.329 3519.52
1779.64 991.241 3807.26
1787.35 990.628 3805.18
1795.05 989.997 3803.08
1475.35 292.672 3597.91
1490.96  292.56 3594.34
 2295.3 927.701 3701.89
1782.67 983.216 3820.77
1790.46 983.108 3818.96
1968.31 1118.48 3781.32
1975.99 1117.74 3779.17
1900.46 923.231 3806.91
2172.33 970.691  3697.8
2180.09 970.406 3695.89
2187.84 970.035 3693.94
2973.28 872.665 3517.93
1465.22 1280.04 3986.92
1875.96 967.871  3800.4
1122.96 1021.33 3981.55
1130.72 1021.04 3979.64
1138.47 1020.69 3977.69
1127.09 949.594 3977.12
1142.61 948.978 3973.28
1825.56 1011.07  3789.5
1833.22 1010.22 3787.29
2479.81 885.072 3654.78
2487.56 884.724 3652.84
2495.31 884.368 3650.89
2973.57 861.627 3520.94
2042.31 1012.11 3731.97
1145.61 1042.16 3969.59
2857.32 905.082 3543.78
2865.02 904.458 3541.69
2872.83 904.441 3539.92
2880.59 904.148 3538.01
2888.37 903.939 3536.14
2155.42 995.391 3725.13
2163.18 995.074 3723.21
1957.16 1086.72 3775.04
1964.89 1086.25 3773.03
2228.35 985.007 3721.57
2236.09 984.573 3719.58
2243.83 984.129 3717.59
1101.31 1018.93 3994.43
2083.63 993.682 3768.48
 2091.4 993.423 3766.58
2099.18 993.234 3764.72
2106.93 992.909 3762.79
2114.73 992.813 3760.98
 2122.5 992.576  3759.1
1877.12 1006.51 3831.65
1884.83 1005.95  3829.6
1900.14 1086.08  3778.1
1882.15 920.594 3800.12
2232.15 974.658  3705.4
2239.87 974.128 3703.36
1836.56 1041.96 3795.32
1875.37 1040.48 3785.74
1898.73 1040.05 3780.24
2389.69 930.546 3616.55
1875.97 1069.25 3783.29
1822.39 999.631 3811.84
1830.09 998.995 3809.75
1837.79 998.346 3807.64
2016.79 987.583 3733.05
 2117.7 983.732 3708.16
2125.46 983.462 3706.26
2133.21 983.083  3704.3
2140.95 982.643 3702.31
1093.81 1008.04 3999.28
 2002.7 927.022 3786.08
2794.65 878.849 3561.64
2802.44 878.724 3559.81
2817.93 877.945 3555.89
2825.72 877.794 3554.05
2833.47 877.457 3552.11
2841.28  877.42 3550.33
2450.61 922.175  3663.8
 2458.4 922.057 3661.98
 2466.1 921.362 3659.86
2018.72 973.244  3743.2
2462.74 1227.73 3826.59
1108.41  1040.2 3986.23
1131.63 1038.91 3980.27
2246.62 987.413 3728.24
2254.34 986.918 3726.21
2262.07 986.415 3724.19
2302.13 941.402 3726.98
2299.41 938.528 3716.56
2179.86 1185.88 3791.11
2287.31 1073.43 3777.71
2295.04 1072.98 3775.71
1836.09 1013.92 3798.16
1843.84  1013.6 3796.23
1851.49 1012.65 3793.97
1799.42 989.656 3820.69
1807.13 989.089 3818.63
1814.83 988.424 3816.52
1804.07 996.911 3805.01
 1811.8 996.423    3803
1819.52 995.869 3800.94
2147.49 975.371 3696.67
2165.78 977.924 3703.41
1102.44 1076.05 3989.31
1110.24 1075.97 3987.51
1118.01 1075.76 3985.64
1125.69 1074.99 3983.47
1133.45 1074.65 3981.53
1141.21 1074.37 3979.63
1791.79 978.027 3825.14
1799.52 977.548 3823.13
1807.29 977.313 3821.25
1815.03 976.894 3819.27
1822.77 976.474 3817.28
1830.52 976.123 3815.34
1838.26 975.705 3813.36
1846.03 975.422 3811.45
1853.78 975.075 3809.51
1861.53   974.7 3807.55
1869.32 974.555 3805.72
1476.61 299.882 3601.76
1492.06 298.871  3597.7
1105.07 957.761 3986.75
1112.87  957.68 3984.95
 1120.7 957.733 3983.22
1136.06 956.248 3978.91
1861.79 1198.99 3870.14
1878.34 930.825 3816.23
2034.32 992.477 3769.48
2065.45 991.765 3762.07
1100.96 1029.61 3991.23
1108.75 1029.48  3989.4
1116.55 1029.41 3987.61
1973.01 1075.34 3774.35
1980.72 1074.75 3772.28
2296.68 935.592  3706.1
1489.67 1285.78 3984.72
1842.24 1017.11 3789.21
1985.01 1124.65 3781.09
1131.32  1049.8 3977.18
2043.36 1018.16 3735.19
2214.04 992.521 3729.09
2221.77 992.048 3727.08
1094.72 1025.95 3999.93
2131.36 998.574 3760.54
2139.19 998.655 3758.83
2146.95 998.342  3756.9
 2154.7 998.002 3754.96
2225.59 981.856    3711
2120.47 986.937 3718.76
2143.75 985.993 3712.99
1973.87 1092.95 3774.84
2031.69 990.072 3759.31
1876.58 946.097 3806.58
1846.83 1005.37 3809.63
1113.25 947.148 3988.23
1120.97 946.613 3986.18
1144.14 945.104 3980.11
1878.16 1094.44 3787.83
2162.42 997.455 3752.92
2232.31 994.974 3735.78
2240.03 994.439 3733.74
2087.91 992.094 3719.65
2095.65  991.72 3717.69
 2103.4  991.36 3715.74
2111.13 990.884 3713.73
2003.49 944.226 3786.36
2188.87 1192.73    3793
2451.78 928.891 3667.38
2459.54 928.589 3665.47
 2467.3 928.244 3663.52
1101.88 1047.52 3991.88
1117.43 1047.09 3988.14
 1125.1 1046.27 3985.95
1140.62 1045.66 3982.11
1997.25 940.593 3795.08
2074.34 997.947 3763.61
2082.15 997.916 3761.84
2089.91 997.569  3759.9
2097.68 997.349 3758.02
2105.43 996.994 3756.08
2113.14 996.368 3753.98
1793.21 986.177 3829.49
1800.93 985.644 3827.44
1808.64 985.024 3825.36
1659.47 1280.47 3971.66
 1667.3 1280.58 3969.97
1675.07 1280.34 3968.08
1828.54 1002.79 3802.88
 1836.3 1002.46 3800.94
 2151.5 985.632 3711.04
2159.21 985.069 3708.98
1095.89 1083.33 3994.94
2456.11 1234.52 3831.96
2463.78  1233.7 3829.77
2905.95 909.146 3572.74
2913.72 908.903 3570.85
2944.62  906.85 3562.73
2983.39 905.138 3553.03
1485.67  306.98 3603.78
1870.82 1205.95 3872.09
1840.63 1001.93 3818.45
1848.34 1001.32 3816.37
1856.05 1000.72 3814.29
2160.87 1001.26 3746.05
2176.49 1001.19  3742.5
2184.25 1000.92  3740.6
2207.47 999.608 3734.63
2188.02 990.428 3724.35
2195.74  989.88  3722.3
2203.47 989.419  3720.3
2211.23 989.085 3718.37
2218.98 988.736 3716.42
1062.63 1059.17 3997.99
1101.55 1058.31 3988.74
1109.29 1057.88 3986.76
1124.79 1057.17 3982.86
1140.29 1056.41 3978.95
1989.72 1081.52 3774.13
2305.24 1086.64 3781.24
1098.87 954.302 3995.55
1106.69 954.368 3993.83
2298.04 962.749 3740.12
1993.97 1131.19 3782.82
1971.09 1020.41 3809.08
2025.35 1017.87 3795.43
1982.84 1099.56 3776.61
2900.46 903.053  3551.7
2931.41 901.338 3543.76
2946.86 900.337 3539.71
2954.65 900.168 3537.86
2962.38 899.687 3535.85
2970.14 899.398 3533.94
2040.56 996.146 3760.79
2048.42 996.431 3759.18
2056.17 996.066 3757.23
2299.09 949.353 3713.43
2106.18 994.571 3726.35
2113.89 993.988 3724.28
2129.44 993.558 3720.53
2137.17 993.039  3718.5
 2031.3 1000.56    3756
2039.08 1000.32 3754.12
 2054.6 999.709 3750.28
2124.42 996.835 3732.93
2139.96 996.342 3729.15
 2147.7 995.951 3727.19
1872.48 1068.67 3802.53
1855.88 1012.45 3811.65
1863.64 1012.12 3809.71
2296.47 966.432 3733.19
2686.24 903.848 3619.11
2709.65  903.65 3613.73
1866.57 952.856 3831.48
2450.98 911.649 3667.09
2474.27  910.76 3661.34
2482.03 910.449 3659.42
2489.76 909.981 3657.41
2497.48 909.433 3655.36
2505.19 908.855  3653.3
1877.21 1025.69 3795.65
1884.99 1025.47 3793.78
 1892.7 1024.92 3791.72
1900.43 1024.41 3789.69
1834.26 1098.86 3809.62
1873.06 1097.29    3800
2004.58 950.451 3789.68
1998.31 946.628 3798.29
2006.14  946.74  3796.6
 2171.4 1004.09  3754.7
2179.16 1003.81 3752.79
2186.88 1003.25 3750.73
2218.02 1002.61 3743.36
2225.71 1001.89 3741.22
1883.43 1029.23 3786.88
1891.18 1028.88 3784.94
 1095.3  1054.6 3997.42
2122.12 1003.08 3755.81
 2129.9 1002.85 3753.93
2137.61 1002.27 3751.86
2145.38 1002.05 3749.98
2153.13 1001.64 3748.01
1906.46 1039.58 3778.24
1914.22 1039.24  3776.3
1921.95 1038.74 3774.27
1864.97  956.37 3824.46
1872.67 955.768 3822.39
2073.61  999.71 3727.22
2081.35 999.305 3725.25
1833.12 990.999 3823.27
2197.83 1199.31 3794.75
2205.57 1198.89 3792.77
1871.16 959.774 3815.63
1845.36 1009.59 3802.99
   1853  1008.6  3800.7
 2922.6 915.002 3572.34
 2930.4 914.883 3570.52
2938.12 914.365 3568.49
1517.94 312.809 3599.86
1525.65 312.225 3597.79
1099.79 972.254 3996.23
1684.07 1287.13 3969.94
1691.75 1286.36 3967.78
 1826.2 1110.09 3808.47
2169.82 1007.73 3747.74
2200.97 1007.15 3740.41
2723.55 906.434 3602.81
2731.32 906.176 3600.91
 2739.1 906.021 3599.07
1865.11 1007.84 3816.33
1872.81 1007.21 3814.24
2514.22 915.795 3655.24
2521.93 915.197 3653.16
1118.34 1064.94 3988.76
2181.49 997.754 3730.02
2903.21  906.13 3562.23
2910.95 905.701 3560.25
 2918.7 905.362 3558.31
2926.47  905.11 3556.42
 2934.2 904.636 3554.41
2941.87 903.796  3552.2
2965.13 902.735 3546.37
2972.91 902.572 3544.52
1998.69 1088.17 3775.92
2909.35 909.244 3553.24
2917.16 909.224 3551.48
2924.93 908.947 3549.57
1870.74 1033.37  3801.5
1991.82 1106.21  3778.4
2182.01 1210.85 3795.53
2189.75 1210.43 3793.54
2063.44 986.973 3787.96
   2110 985.131 3776.43
2117.81 985.101 3774.66
2042.18 1024.78 3795.59
2057.67 1023.98 3791.65
2065.41 1023.55 3789.67
2073.14 1023.09 3787.67
2080.87 1022.63 3785.67
2002.99 1138.06 3784.73
 2010.7  1137.5 3782.67
2314.24 1093.39 3783.08
2321.98 1092.96  3781.1
2047.96 1006.46 3755.63
2063.53 1006.11 3751.94
2071.38 1006.34  3750.3
2079.11 1005.86 3748.28
2094.62 1005.19 3744.42
2117.88 1004.15 3738.59
2133.42 1003.65 3734.81
2029.71 1004.12 3749.01
2091.87 1002.13 3733.89
2099.61 1001.67 3731.89
1876.88 1036.45 3792.49
1900.24 1035.99 3786.97
1850.39  1076.4 3811.92
1872.61 1018.74 3811.49
1880.37 1018.43 3809.57
1859.91 959.475 3836.77
2065.03 1002.03 3758.65
2072.88 1002.23    3757
2080.59 1001.67 3754.94
2088.31 1001.13  3752.9
2096.11 1001.06 3751.11
2015.16 953.644 3798.52
2710.77 910.037 3617.14
2718.55 909.868 3615.29
2726.28 909.415 3613.29
2734.05 909.115 3611.37
 2741.8 908.793 3609.45
2749.58 908.605 3607.59
2757.35 908.306 3605.67
2765.11 908.047 3603.78
2772.87 907.718 3601.84
2780.63 907.411 3599.92
2788.37 906.993 3597.94
2796.14 906.715 3596.04
 2803.9 906.451 3594.14
1794.87  970.36 3838.84
1864.61 967.005 3821.24
2028.17 1007.96 3742.16
2059.34 1007.49 3734.88
2214.57 1205.64 3794.62
 2222.3 1205.19 3792.62
2195.84 1009.81 3752.47
2203.59 1009.48 3750.54
2211.35 1009.17 3748.62
 2167.1 986.223 3773.61
1930.95 1045.57 3776.16
 1938.7 1045.22 3774.21
1946.46 1044.86 3772.27
1954.17 1044.27 3770.19
1961.88 1043.71 3768.14
1969.63 1043.35 3766.19
1862.06 1015.73 3802.75
1869.72 1014.87 3800.53
2177.48 988.243 3781.82
2185.26 988.045 3779.96
2208.58 987.331 3774.31
2239.63  986.16 3766.66
2247.41 985.988 3764.81
2293.86 983.518 3752.95
1969.56  1024.3 3802.26
2016.07 1022.17 3790.58
2294.92 970.189  3726.3
1820.83 972.067 3843.37
1828.62 971.951 3841.56
1851.95 971.288 3835.93
1859.63 970.552 3833.78
2747.99 912.131 3600.57
2755.75 911.824 3598.65
2763.49 911.448  3596.7
2771.25   911.1 3594.75
2779.02 910.867 3592.87
2786.77 910.499 3590.92
2794.53 910.192    3589
2802.29 909.881 3587.08
2810.05 909.602 3585.17
2817.82 909.353 3583.28
2825.57 908.982 3581.32
2833.33 908.648 3579.39
2841.09 908.343 3577.47
2848.87 908.136  3575.6
2856.61 907.757 3573.64
 2864.4  907.62 3571.81
2872.17 907.336 3569.91
 2879.9 906.874  3567.9
2887.64 906.484 3565.94
2895.43 906.345 3564.11
1873.97 1115.18 3800.64
 1858.9 1004.39 3825.14
 1866.6 1003.71 3823.02
1874.38 1003.55 3821.18
1882.07 1002.84 3819.04
 2194.3 1013.71 3745.66
1881.88  1014.4 3816.31
 2159.4 1005.47  3739.4
2167.15 1005.15 3737.48
2174.91 1004.85 3735.55
2523.14 922.108 3656.85
2456.08  928.12 3684.76
2150.03 990.626 3770.58
2157.79 990.302 3768.65
2089.96 1029.89 3787.78
2097.67 1029.35 3785.73
2105.41 1028.91 3783.74
2113.16 1028.56  3781.8
2120.95 1028.39 3779.95
2128.71 1028.09 3778.04
2136.46 1027.71 3776.07
2179.02 1168.39 3790.68
2019.67 1144.13 3784.45
2198.73 1217.12 3795.35
2000.86 1113.23 3780.38
2008.55 1112.53 3778.25
2182.89 1228.55 3796.07
1830.22 968.455 3848.59
1853.51 967.574 3842.84
2791.78  907.14 3578.48
2799.56 906.925 3576.61
2807.34 906.721 3574.74
2815.12 906.531 3572.88
2822.84 906.002 3570.84
2830.59 905.674 3568.91
2838.37 905.481 3567.05
 2846.1 904.998 3565.04
 2853.9  904.92 3563.24
2861.68 904.702 3561.36
 2869.4 904.191 3559.33
 2892.7 903.349 3553.61
 1864.1 1040.09 3806.84
1096.23 1072.58 3998.11
2087.97 1011.81  3749.7
2103.48 1011.16 3745.84
2111.24 1010.86 3743.92
2105.02 1007.31 3752.68
 2112.8 1007.12 3750.82
2120.54  1006.7 3748.84
2128.31 1006.41 3746.93
2136.16 1006.66 3745.31
2143.82 1005.79 3743.09
2151.58 1005.46 3741.15
2007.72 1095.08 3777.85
2015.43  1094.5 3775.78
2330.95 1099.61 3782.88
1867.15 1082.89 3811.87
1870.33 1043.67 3798.09
2812.81  912.71 3595.72
2820.55  912.29 3593.74
2828.32 912.015 3591.84
2836.09 911.759 3589.94
2843.82 911.305 3587.94
2851.59 911.075 3586.06
2859.35 910.776 3584.15
2867.14 910.606  3582.3
 2874.9 910.283 3580.37
2890.42 909.698 3576.54
2898.18 909.359 3574.61
1796.24 978.196 3843.02
1819.29 975.944 3836.55
1827.05 975.651 3834.63
1834.81   975.3 3832.69
1842.55 974.886 3830.71
1850.33 974.716 3828.86
1858.07  974.28 3826.87
2183.72 991.906 3773.13
2191.52 991.833 3771.33
2199.29  991.59 3769.44
2207.02 991.087 3767.42
 2214.8 990.898 3765.56
2222.57 990.647 3763.67
2230.34 990.393 3761.78
 2238.1 990.095 3759.86
2245.87  989.82 3757.96
2292.33 987.435 3746.14
2038.67 1010.68 3750.75
2046.43 1010.36 3748.82
 2054.2 1010.08 3746.91
2062.02 1010.12 3745.18
2256.29 992.096 3766.31
2264.05  991.76 3764.37
 2271.8 991.417 3762.43
2279.58 991.204 3760.56
2287.36 991.008  3758.7
 1848.1 1133.33 3826.24
 1978.7 1050.52 3768.25
1986.44 1050.11 3766.28
1994.16 1049.55 3764.22
2037.14 1014.59 3743.94
 2044.9 1014.26    3742
2052.65 1013.93 3740.07
2068.31  1014.1 3736.65
2231.27 1211.82 3794.39
1822.23 980.104 3847.66
1829.94 979.493 3845.58
1837.66 978.932 3843.52
1845.37 978.376 3841.47
1878.83 1022.29 3802.73
2025.14 1029.35 3792.65
2032.89 1029.02 3790.72
2040.65 1028.67 3788.78
2048.35 1028.04 3786.68
 2056.1 1027.65 3784.72
2063.84 1027.25 3782.75
 2071.6 1026.95 3780.83
   2465 934.466 3686.39
2472.76 934.153 3684.46
 2480.5 933.722 3682.48
2488.22 933.202 3680.44
2496.01 933.085 3678.62
2503.79 932.856 3676.74
2511.53 932.437 3674.76
 2519.3 932.178 3672.87
2526.96 931.337 3670.66
2191.93 1235.59 3798.06
2199.63 1234.94 3795.96
2151.57 986.746  3777.4
2159.32 986.417 3775.47
2454.47 931.615 3677.73
2462.24 931.362 3675.84
2470.03  931.22    3674
2477.79 930.914 3672.08
2485.52 930.431 3670.07
2493.27 930.063 3668.12
2501.06 929.904 3666.28
2508.82 929.641 3664.38
2516.58  929.29 3662.43
2168.67  1033.2 3771.97
2176.48 1033.17  3770.2
2184.26 1032.99 3768.34
 2191.9    1032 3766.06
2017.53 1119.18 3780.04
 2145.5 1034.76 3778.07
2153.25 1034.41 3776.13
2161.01  1034.1 3774.21
2165.56 990.088 3766.78
2173.34 989.855  3764.9
2878.32 910.484 3560.93
2886.08 910.194 3559.02
   2188  1175.1  3792.5
2195.71 1174.48 3790.41
1926.53 1026.96 3794.68
1934.25 1026.43 3792.64
1941.99 1026.02 3790.66
1949.73 1025.56 3788.66
2207.71  1223.8 3797.16
2028.67 1150.89 3786.29
2036.41 1150.47 3784.32
 1831.5  975.77 3852.49
2254.79 996.153 3759.58
2262.54 995.792 3757.63
2270.25 995.221 3755.57
2278.06 995.209  3753.8
2285.81 994.839 3751.85
1820.73 984.169 3840.93
1828.44 983.554 3838.85
1951.25 1021.64 3795.46
 2024.4 1101.12 3777.55
2339.93 1106.27 3784.68
2174.85 1036.51 3763.08
2070.92 1016.35 3746.74
2078.68 1016.03 3744.81
2086.43  1015.7 3742.88
1861.82 1097.07 3821.18
2883.79 916.483 3581.92
1838.83 1137.67 3821.42
1849.31 1140.28 3829.94
2116.27 1021.02 3795.56
2131.77 1020.25 3791.64
2139.48 1019.65 3789.57
2147.23 1019.29 3787.62
1858.47 1065.24 3813.11
1866.25 1065.06 3811.25
2175.07  1107.8 3785.06
2182.79 1107.26 3783.01
1907.96 1035.47 3784.94
1915.72 1035.13    3783
1923.43 1034.54 3780.93
1931.16 1034.07 3778.92
2080.65 1034.05 3782.86
2088.44 1033.92 3781.03
2096.18 1033.46 3779.03
 2103.9 1032.93 3776.99
2111.59 1032.19 3774.84
2134.88 1031.36 3769.13
2204.71 1181.29 3792.28
2208.62 1241.63 3797.77
2026.55 1126.08 3781.96
1958.77 1032.61 3790.66
1966.55 1032.44 3788.81
1974.25 1031.78  3786.7
   1982 1031.43 3784.76
1989.75 1031.05  3782.8
1997.51 1030.72 3780.86
2182.19 995.834 3766.33
2189.99 995.723 3764.51
2197.75 995.435  3762.6
2205.55 995.326 3760.78
2213.31 995.015 3758.86
2221.03 994.509 3756.83
 2228.8 994.226 3754.93
2236.49 993.557 3752.81
2244.28 993.383 3750.96
2290.83 991.518 3739.43
2045.38 1157.06 3786.07
2182.59 1017.44 3797.39
2190.34 1017.11 3795.45
2205.84 1016.38 3791.55
2213.57 1015.92 3789.55
2200.97 1039.18 3768.13
2208.68 1038.56 3766.04
2216.41 1038.13 3764.06
2224.14 1037.64 3762.04
2241.53 1225.77 3800.07
2249.26 1225.29 3798.06
2005.53 1069.92 3773.33
2216.71 1230.57 3799.01
2224.45 1230.17 3797.04
2033.37 1107.74 3779.32
2168.38  1044.2 3768.94
2183.82 1043.16 3764.87
1960.33 1028.88 3797.57
1968.09 1028.58 3795.65
1975.85 1028.23  3793.7
1983.58 1027.79 3791.71
1991.27 1027.09 3789.58
1999.06 1026.95 3787.75
1850.57 1147.46 3833.77
1866.08 1146.79  3829.9
1909.51 1031.69 3791.82
1917.25 1031.25 3789.82
1924.98 1030.78 3787.82
1932.72 1030.34 3785.83
696.572 805.142 4028.81
704.327 804.811 4026.88
2348.94 1113.12 3786.57
 2156.3  1026.5  3789.7
2164.04 1026.08 3787.72
 2217.6 1248.35  3799.6
2225.34 1247.89 3797.59
2035.54 1132.83  3783.8
2120.68 1039.55 3777.01
2128.44  1039.2 3775.06
2143.94 1038.49 3771.17
 2151.7  1038.2 3769.26
