0.131238	-0.4601	0.341797
0.0727383	-0.393694	0.544922
0.0803604	-0.417132	0.513672
0.119509	-0.0811942	0.365234
0.119588	-0.077288	0.365234
0.119492	-0.0733817	0.365234
0.135072	-0.163225	0.255859
0.134939	-0.112444	0.255859
0.135163	-0.108538	0.255859
0.135068	-0.104632	0.255859
0.119463	-0.0694755	0.369141
0.0881419	-0.413225	0.525391
0.123281	-0.444475	0.373047
0.0765629	-0.0421317	0.630859
0.0765633	-0.0382255	0.630859
0.0765283	-0.0265067	0.630859
0.0765459	-0.0226005	0.630859
0.0765536	-0.0186942	0.630859
0.0765737	-0.014788	0.630859
0.0765162	-0.0108817	0.630859
0.0764983	-0.00697547	0.630859
0.0764616	-0.00306922	0.630859
0.0765126	0.000837028	0.630859
0.0765402	0.00474328	0.630859
0.0764593	0.00864953	0.630859
0.0764434	0.0125558	0.630859
0.0764406	0.016462	0.630859
0.0764674	0.0203683	0.630859
0.0764558	0.0242745	0.630859
0.0764092	0.0281808	0.630859
0.076455	0.032087	0.630859
0.0764364	0.0359933	0.630859
0.0763996	0.0398995	0.630859
0.0764442	0.0438058	0.630859
0.0763998	0.047712	0.630859
0.0764319	0.0516183	0.630859
0.0840551	-0.417132	0.513672
0.107673	-0.046038	0.533203
0.119623	-0.464007	0.349609
0.123361	-0.0851005	0.361328
0.123176	-0.077288	0.361328
0.103988	-0.401507	0.548828
0.115575	-0.0851005	0.361328
0.115455	-0.077288	0.361328
0.115422	-0.0733817	0.361328
0.0803938	-0.413225	0.521484
0.0918778	-0.413225	0.525391
0.146511	-0.452288	0.369141
0.146926	-0.0851005	0.353516
0.146616	-0.077288	0.353516
0.142606	-0.452288	0.365234
0.0842159	-0.413225	0.521484
0.123286	-0.452288	0.376953
0.123534	-0.448382	0.376953
0.0801353	-0.409319	0.525391
0.0879797	-0.409319	0.529297
0.134587	-0.163225	0.259766
0.115411	-0.0811942	0.365234
0.107541	0.0555245	0.619141
0.107468	0.0594308	0.619141
0.107459	0.0672433	0.619141
0.107496	0.0711495	0.619141
0.10745	0.0750558	0.619141
0.134863	-0.456194	0.357422
0.0841542	-0.409319	0.529297
0.0804392	-0.3976	0.529297
0.130922	-0.444475	0.376953
0.131051	-0.440569	0.376953
0.127323	-0.4601	0.341797
0.123415	-0.0811942	0.365234
0.123454	-0.0733817	0.365234
0.13093	-0.456194	0.357422
0.0919828	-0.409319	0.533203
0.0842935	-0.401507	0.533203
0.0801947	-0.405413	0.533203
0.0803681	-0.401507	0.533203
0.0798038	-0.3976	0.533203
0.138678	-0.421038	0.345703
0.107443	-0.0421317	0.544922
0.107796	-0.436663	0.529297
0.107902	-0.432757	0.529297
0.107891	-0.42885	0.529297
0.107887	-0.424944	0.529297
0.10788	-0.421038	0.529297
0.107659	-0.417132	0.529297
0.146716	-0.0733817	0.357422
0.0844222	-0.405413	0.537109
0.0837056	-0.401507	0.537109
0.103534	0.0555245	0.619141
0.107833	0.063337	0.623047
0.107803	0.078962	0.623047
0.107687	0.0828683	0.623047
0.107695	0.0867745	0.623047
0.107697	0.0906808	0.623047
0.107656	0.094587	0.623047
0.107671	0.0984933	0.623047
0.107684	0.1024	0.623047
0.107655	0.106306	0.623047
0.107547	0.110212	0.623047
0.107542	0.114118	0.623047
0.107659	0.118025	0.623047
0.107814	0.121931	0.623047
0.0805542	-0.3976	0.548828
0.0805547	-0.393694	0.548828
0.0844423	-0.401507	0.541016
0.123205	-0.0694755	0.373047
0.0881967	-0.405413	0.537109
0.0844092	-0.393694	0.544922
0.0921968	-0.405413	0.537109
0.107561	-0.413225	0.533203
0.10774	-0.405413	0.533203
0.119157	-0.456194	0.365234
0.0844302	-0.3976	0.548828
0.130553	-0.444475	0.380859
0.130415	-0.440569	0.380859
0.134774	-0.452288	0.369141
0.103874	0.0594308	0.623047
0.103815	0.063337	0.623047
0.103864	0.0672433	0.623047
0.103842	0.0711495	0.623047
0.103786	0.0750558	0.623047
0.103811	0.078962	0.623047
0.103746	0.0828683	0.623047
0.103779	0.0867745	0.623047
0.103673	0.0906808	0.623047
0.103655	0.094587	0.623047
0.103645	0.0984933	0.623047
0.103661	0.1024	0.623047
0.103706	0.106306	0.623047
0.103578	0.110212	0.623047
0.103551	0.114118	0.623047
0.103553	0.118025	0.623047
0.103826	0.121931	0.623047
0.107826	-0.409319	0.537109
0.130971	-0.0694755	0.373047
0.13099	-0.452288	0.373047
0.127004	-0.0694755	0.373047
0.146206	-0.452288	0.400391
0.0879639	-0.401507	0.544922
0.0919684	-0.401507	0.548828
0.103342	-0.0343192	0.611328
0.127185	-0.456194	0.361328
0.139039	-0.4601	0.341797
0.130943	-0.444475	0.384766
0.131298	-0.440569	0.384766
0.131066	-0.436663	0.384766
0.107249	-0.405413	0.541016
0.107855	-0.3976	0.541016
0.119136	-0.456194	0.373047
0.119629	-0.452288	0.373047
0.119446	-0.448382	0.373047
0.131348	-0.0890067	0.357422
0.131011	-0.0851005	0.357422
0.142407	-0.452288	0.400391
0.0883113	-0.3976	0.548828
0.130742	-0.0694755	0.376953
0.0922624	-0.3976	0.552734
0.130601	-0.452288	0.376953
0.119189	-0.0655692	0.412109
0.111099	-0.440569	0.462891
0.146874	-0.452288	0.408203
0.107818	-0.401507	0.544922
0.10374	-0.0343192	0.619141
0.103883	-0.030413	0.619141
0.10381	-0.0265067	0.619141
0.103843	-0.0226005	0.619141
0.103876	-0.0186942	0.619141
0.103897	-0.014788	0.619141
0.103879	-0.0108817	0.619141
0.103831	-0.00697547	0.619141
0.103874	-0.00306922	0.619141
0.103867	0.000837028	0.619141
0.103835	0.00474328	0.619141
0.103836	0.00864953	0.619141
0.103808	0.0125558	0.619141
0.103829	0.016462	0.619141
0.103839	0.0203683	0.619141
0.103803	0.0242745	0.619141
0.103691	0.0281808	0.619141
0.103778	0.032087	0.619141
0.103632	0.0359933	0.619141
0.103592	0.0398995	0.619141
0.103524	0.0438058	0.619141
0.103644	0.047712	0.619141
0.103575	0.0516183	0.619141
0.138956	-0.0890067	0.353516
0.119629	-0.456194	0.376953
0.130934	-0.0811942	0.361328
0.131249	-0.077288	0.361328
0.131137	-0.0733817	0.361328
0.107709	-0.405413	0.548828
0.12694	-0.440569	0.486328
0.127194	-0.448382	0.376953
0.135209	-0.448382	0.392578
0.143046	-0.452288	0.404297
0.143018	-0.448382	0.404297
0.142259	-0.440569	0.505859
0.138672	-0.456194	0.353516
0.131051	-0.452288	0.380859
0.138699	-0.444475	0.388672
0.127055	-0.0890067	0.353516
0.107165	-0.0343192	0.611328
0.118821	-0.440569	0.478516
0.138184	-0.0890067	0.357422
0.139141	-0.0851005	0.357422
0.138926	-0.077288	0.357422
0.138729	-0.0733817	0.357422
0.11126	-0.444475	0.466797
0.111732	-0.440569	0.466797
0.146929	-0.448382	0.412109
0.123203	-0.0655692	0.416016
0.146049	-0.440569	0.505859
0.127321	-0.452288	0.380859
0.127015	-0.0655692	0.412109
0.107446	-0.0343192	0.615234
0.107558	-0.030413	0.615234
0.107473	-0.0265067	0.615234
0.107535	-0.0226005	0.615234
0.107457	-0.0186942	0.615234
0.107486	-0.0108817	0.615234
0.107526	-0.00697547	0.615234
0.107514	-0.00306922	0.615234
0.107513	0.000837028	0.615234
0.10745	0.00864953	0.615234
0.107496	0.0125558	0.615234
0.138184	-0.444475	0.392578
0.131327	-0.448382	0.388672
0.138786	-0.0811942	0.365234
0.142744	-0.440569	0.513672
0.114982	-0.440569	0.470703
0.134805	-0.440569	0.392578
0.110846	-0.440569	0.470703
0.126492	-0.436663	0.498047
0.138697	-0.452288	0.365234
0.127361	-0.0851005	0.361328
0.127162	-0.0811942	0.361328
0.12725	-0.077288	0.361328
0.127005	-0.0733817	0.361328
0.146559	-0.440569	0.513672
0.107818	-0.014788	0.619141
0.107846	0.00474328	0.619141
0.107801	0.016462	0.619141
0.107787	0.0203683	0.619141
0.10779	0.0242745	0.619141
0.107791	0.0281808	0.619141
0.107789	0.032087	0.619141
0.107804	0.0359933	0.619141
0.107745	0.0398995	0.619141
0.107661	0.0438058	0.619141
0.107677	0.047712	0.619141
0.107666	0.0516183	0.619141
0.111309	-0.046038	0.537109
0.119317	-0.440569	0.501953
0.122899	-0.440569	0.482422
0.134897	-0.0890067	0.353516
0.13099	-0.0655692	0.416016
0.111456	-0.444475	0.474609
0.127146	-0.440569	0.505859
0.115234	-0.444475	0.474609
0.146817	0.0555245	0.607422
0.146799	0.0594308	0.607422
0.146777	0.063337	0.607422
0.146737	0.0672433	0.607422
0.146715	0.0711495	0.607422
0.146782	0.0750558	0.607422
0.146727	0.078962	0.607422
0.146601	0.0828683	0.607422
0.146487	0.0906808	0.607422
0.146738	0.118025	0.607422
0.13503	-0.0655692	0.419922
0.119186	-0.0655692	0.466797
0.142596	-0.436663	0.521484
0.111498	-0.046038	0.541016
0.146635	-0.436663	0.525391
0.142749	0.0555245	0.607422
0.142675	0.0594308	0.607422
0.142619	0.063337	0.607422
0.142634	0.0672433	0.607422
0.142654	0.0711495	0.607422
0.142653	0.0750558	0.607422
0.142632	0.078962	0.607422
0.142781	0.118025	0.607422
0.13873	-0.0655692	0.419922
0.115381	-0.444475	0.478516
0.135127	-0.0851005	0.357422
0.134863	-0.077288	0.357422
0.146909	0.0867745	0.611328
0.146913	0.094587	0.611328
0.146889	0.0984933	0.611328
0.146833	0.1024	0.611328
0.146763	0.106306	0.611328
0.146765	0.110212	0.611328
0.14688	0.114118	0.611328
0.123063	-0.440569	0.501953
0.138523	-0.452288	0.392578
0.142929	0.0828683	0.611328
0.142849	0.0867745	0.611328
0.142847	0.0906808	0.611328
0.142846	0.094587	0.611328
0.142827	0.0984933	0.611328
0.142805	0.1024	0.611328
0.142823	0.106306	0.611328
0.142804	0.110212	0.611328
0.142795	0.114118	0.611328
0.135145	-0.0733817	0.361328
0.111597	-0.440569	0.498047
0.142744	-0.0538505	0.564453
0.119187	-0.409319	0.533203
0.134984	-0.0811942	0.365234
0.150499	-0.159319	0.248047
0.150568	-0.155413	0.248047
0.15058	-0.151507	0.248047
0.15058	-0.1476	0.248047
0.150618	-0.143694	0.248047
0.15062	-0.139788	0.248047
0.150737	-0.135882	0.248047
0.150766	-0.131975	0.248047
0.150629	-0.128069	0.248047
0.150662	-0.124163	0.248047
0.139037	-0.452288	0.396484
0.127001	-0.436663	0.537109
0.115411	-0.440569	0.498047
0.130505	-0.440569	0.494141
0.146898	-0.432757	0.556641
0.142894	-0.424944	0.552734
0.119219	-0.436663	0.537109
0.119303	-0.413225	0.537109
0.142566	-0.0538505	0.568359
0.139078	-0.448382	0.400391
0.150849	-0.108538	0.255859
0.158437	-0.159319	0.248047
0.158611	-0.155413	0.248047
0.158449	-0.151507	0.248047
0.158483	-0.1476	0.248047
0.158506	-0.143694	0.248047
0.126901	-0.436663	0.544922
0.146933	-0.42885	0.560547
0.142983	-0.0538505	0.572266
0.123403	-0.409319	0.533203
0.142613	-0.432757	0.556641
0.142777	-0.42885	0.556641
0.142201	-0.424944	0.556641
0.119332	-0.42885	0.541016
0.119288	-0.424944	0.541016
0.119466	-0.421038	0.541016
0.119428	-0.417132	0.541016
0.162437	-0.155413	0.248047
0.146077	-0.0577567	0.568359
0.146529	-0.0538505	0.568359
0.13108	-0.440569	0.505859
0.111697	0.0555245	0.619141
0.11169	0.0594308	0.619141
0.111689	0.063337	0.619141
0.111542	0.0672433	0.619141
0.111622	0.0711495	0.619141
0.111675	0.0750558	0.619141
0.111444	0.078962	0.619141
0.111373	0.0828683	0.619141
0.111615	0.121931	0.619141
0.127292	-0.436663	0.548828
0.127086	-0.424944	0.548828
0.127416	-0.421038	0.548828
0.127395	-0.417132	0.548828
0.127434	-0.413225	0.548828
0.127424	-0.409319	0.548828
0.154489	-0.159319	0.248047
0.154552	-0.155413	0.248047
0.154626	-0.151507	0.248047
0.154594	-0.1476	0.248047
0.154705	-0.143694	0.248047
0.154431	-0.139788	0.248047
0.154524	-0.135882	0.248047
0.154624	-0.131975	0.248047
0.12309	-0.436663	0.537109
0.122889	-0.409319	0.537109
0.115477	-0.405413	0.529297
0.111525	-0.436663	0.533203
0.111741	-0.432757	0.533203
0.111774	-0.42885	0.533203
0.111809	-0.424944	0.533203
0.111816	-0.421038	0.533203
0.111775	-0.417132	0.533203
0.111403	-0.413225	0.533203
0.14296	-0.0499442	0.576172
0.14694	-0.0577567	0.572266
0.142223	-0.42885	0.560547
0.111668	-0.0343192	0.615234
0.111556	-0.030413	0.615234
0.111529	-0.0265067	0.615234
0.111509	-0.0226005	0.615234
0.111458	-0.0186942	0.615234
0.111485	-0.014788	0.615234
0.111459	-0.0108817	0.615234
0.111485	-0.00697547	0.615234
0.111504	-0.00306922	0.615234
0.111528	0.000837028	0.615234
0.111472	0.00474328	0.615234
0.111471	0.00864953	0.615234
0.111446	0.0125558	0.615234
0.111461	0.016462	0.615234
0.111425	0.0203683	0.615234
0.11136	0.0242745	0.615234
0.111424	0.0281808	0.615234
0.111379	0.032087	0.615234
0.111439	0.0359933	0.615234
0.111412	0.0398995	0.615234
0.111336	0.0516183	0.615234
0.119516	-0.432757	0.544922
0.115276	-0.0226005	0.611328
0.111702	0.0867745	0.623047
0.111733	0.0906808	0.623047
0.111701	0.094587	0.623047
0.111703	0.0984933	0.623047
0.111636	0.1024	0.623047
0.111641	0.106306	0.623047
0.111593	0.110212	0.623047
0.111587	0.114118	0.623047
0.111692	0.118025	0.623047
0.12329	0.0555245	0.615234
0.123263	0.0594308	0.615234
0.123334	0.063337	0.615234
0.123273	0.0672433	0.615234
0.123198	0.0711495	0.615234
0.123156	0.0750558	0.615234
0.123238	0.078962	0.615234
0.123147	0.0828683	0.615234
0.123051	0.0867745	0.615234
0.12315	0.0906808	0.615234
0.123097	0.094587	0.615234
0.123362	0.121931	0.615234
0.127239	-0.432757	0.552734
0.127232	-0.42885	0.552734
0.146763	-0.0499442	0.576172
0.146783	-0.046038	0.576172
0.146589	-0.0421317	0.576172
0.146577	-0.0382255	0.576172
0.146521	-0.0343192	0.576172
0.146335	-0.42885	0.572266
0.123084	-0.417132	0.541016
0.123497	-0.413225	0.541016
0.115298	-0.409319	0.533203
0.115039	-0.405413	0.533203
0.134468	-0.440569	0.498047
0.143007	-0.046038	0.580078
0.142972	-0.0421317	0.580078
0.142853	-0.0382255	0.580078
0.1428	-0.0343192	0.580078
0.111753	-0.409319	0.537109
0.11179	-0.405413	0.537109
0.115645	-0.0343192	0.615234
0.115609	-0.030413	0.615234
0.115652	-0.0265067	0.615234
0.115548	-0.0186942	0.615234
0.115521	-0.014788	0.615234
0.115521	-0.0108817	0.615234
0.115537	-0.00697547	0.615234
0.115615	-0.00306922	0.615234
0.115627	0.000837028	0.615234
0.115617	0.00474328	0.615234
0.115629	0.00864953	0.615234
0.115598	0.0125558	0.615234
0.115557	0.016462	0.615234
0.115482	0.0203683	0.615234
0.11548	0.0242745	0.615234
0.115511	0.0281808	0.615234
0.115471	0.032087	0.615234
0.115456	0.0359933	0.615234
0.115397	0.0398995	0.615234
0.115361	0.0438058	0.615234
0.115421	0.047712	0.615234
0.115326	0.0516183	0.615234
0.130889	-0.436663	0.525391
0.111713	0.0438058	0.619141
0.111757	0.047712	0.619141
0.138252	-0.440569	0.501953
0.138185	-0.436663	0.501953
0.123451	0.0984933	0.619141
0.123428	0.1024	0.619141
0.123399	0.106306	0.619141
0.123407	0.110212	0.619141
0.12342	0.114118	0.619141
0.123416	0.118025	0.619141
0.119405	0.0555245	0.615234
0.119357	0.0594308	0.615234
0.119289	0.063337	0.615234
0.119242	0.0672433	0.615234
0.119169	0.0711495	0.615234
0.119414	0.121931	0.615234
0.12325	-0.421038	0.544922
0.123511	-0.409319	0.544922
0.146937	-0.42885	0.576172
0.115532	-0.436663	0.537109
0.115548	-0.432757	0.537109
0.115576	-0.42885	0.537109
0.115667	-0.424944	0.537109
0.115709	-0.421038	0.537109
0.115676	-0.417132	0.537109
0.115499	-0.413225	0.537109
0.111244	-0.405413	0.544922
0.111754	-0.401507	0.544922
0.13081	-0.436663	0.529297
0.142986	-0.42885	0.576172
0.142909	-0.424944	0.576172
0.127256	-0.0499442	0.556641
0.119542	0.0750558	0.619141
0.11952	0.078962	0.619141
0.119519	0.0828683	0.619141
0.119486	0.0867745	0.619141
0.119508	0.0906808	0.619141
0.11951	0.094587	0.619141
0.119487	0.0984933	0.619141
0.119443	0.1024	0.619141
0.119447	0.106306	0.619141
0.119351	0.110212	0.619141
0.11943	0.114118	0.619141
0.119467	0.118025	0.619141
0.123427	-0.432757	0.548828
0.123419	-0.42885	0.548828
0.123531	-0.424944	0.548828
0.146769	-0.030413	0.599609
0.146556	-0.0265067	0.599609
0.146563	-0.0226005	0.599609
0.146495	-0.0186942	0.599609
0.135002	-0.440569	0.509766
0.138787	-0.440569	0.509766
0.126971	0.0555245	0.611328
0.126958	0.0594308	0.611328
0.15822	-0.432757	0.330078
0.158587	-0.4601	0.345703
0.111684	-0.405413	0.548828
0.142754	-0.030413	0.599609
0.122679	-0.0421317	0.576172
0.162143	-0.436663	0.326172
0.13092	-0.436663	0.533203
0.146851	-0.014788	0.603516
0.146917	-0.0108817	0.603516
0.146863	-0.00697547	0.603516
0.14667	-0.00306922	0.603516
0.146647	0.000837028	0.603516
0.146778	0.00474328	0.603516
0.1467	0.00864953	0.603516
0.146651	0.0125558	0.603516
0.1466	0.016462	0.603516
0.146611	0.0203683	0.603516
0.146542	0.0242745	0.603516
0.146513	0.0281808	0.603516
0.146496	0.032087	0.603516
0.13112	0.0555245	0.611328
0.131064	0.0594308	0.611328
0.131035	0.063337	0.611328
0.130867	0.0711495	0.611328
0.142831	-0.0265067	0.603516
0.142886	-0.0226005	0.603516
0.142818	-0.0186942	0.603516
0.142784	-0.014788	0.603516
0.142812	-0.0108817	0.603516
0.142736	-0.00697547	0.603516
0.142664	-0.00306922	0.603516
0.142664	0.000837028	0.603516
0.142683	0.00474328	0.603516
0.142588	0.0125558	0.603516
0.142643	0.016462	0.603516
0.142586	0.0203683	0.603516
0.14259	0.0242745	0.603516
0.154464	-0.4601	0.341797
0.138677	-0.436663	0.521484
0.119474	-0.0382255	0.595703
0.119272	-0.0343192	0.595703
0.131185	-0.0499442	0.556641
0.162133	-0.432757	0.330078
0.127312	0.063337	0.615234
0.127252	0.0672433	0.615234
0.127171	0.0711495	0.615234
0.127129	0.0750558	0.615234
0.127216	0.078962	0.615234
0.12716	0.0828683	0.615234
0.127097	0.0867745	0.615234
0.127053	0.0906808	0.615234
0.127035	0.094587	0.615234
0.127021	0.0984933	0.615234
0.127013	0.1024	0.615234
0.127021	0.106306	0.615234
0.127004	0.110212	0.615234
0.127031	0.114118	0.615234
0.127005	0.118025	0.615234
0.12743	0.121931	0.615234
0.158209	-0.456194	0.349609
0.115337	0.0555245	0.615234
0.115287	0.0594308	0.615234
0.154326	-0.42885	0.337891
0.123143	-0.0421317	0.580078
0.134835	-0.436663	0.529297
0.158203	-0.0890067	0.337891
0.139064	0.0555245	0.611328
0.138988	0.0594308	0.611328
0.138994	0.063337	0.611328
0.139046	0.0672433	0.611328
0.13899	0.0711495	0.611328
0.138983	0.0750558	0.611328
0.138969	0.078962	0.611328
0.138928	0.0828683	0.611328
0.1389	0.0867745	0.611328
0.138885	0.0906808	0.611328
0.138901	0.094587	0.611328
0.138878	0.0984933	0.611328
0.138831	0.1024	0.611328
0.138801	0.106306	0.611328
0.138792	0.110212	0.611328
0.138815	0.114118	0.611328
0.138776	0.118025	0.611328
0.14682	0.0359933	0.607422
0.14686	0.0398995	0.607422
0.146866	0.0438058	0.607422
0.146813	0.047712	0.607422
0.14689	0.0516183	0.607422
0.131289	0.0672433	0.615234
0.13122	0.0750558	0.615234
0.13125	0.078962	0.615234
0.131232	0.0828683	0.615234
0.131209	0.0867745	0.615234
0.13125	0.0906808	0.615234
0.131179	0.094587	0.615234
0.131076	0.0984933	0.615234
0.131113	0.1024	0.615234
0.131085	0.106306	0.615234
0.131062	0.110212	0.615234
0.13109	0.114118	0.615234
0.131033	0.118025	0.615234
0.135095	-0.0499442	0.560547
0.162003	-0.432757	0.333984
0.150508	-0.0890067	0.345703
0.150549	-0.424944	0.341797
0.143003	0.00864953	0.607422
0.14288	0.0281808	0.607422
0.142881	0.032087	0.607422
0.142877	0.0359933	0.607422
0.142863	0.0398995	0.607422
0.142871	0.0438058	0.607422
0.142849	0.047712	0.607422
0.142828	0.0516183	0.607422
0.138703	-0.0499442	0.564453
0.123459	-0.0382255	0.587891
0.123423	-0.0343192	0.587891
0.134729	-0.436663	0.537109
0.131175	-0.413225	0.548828
0.12714	-0.0421317	0.583984
0.127	-0.0382255	0.583984
0.127018	-0.0343192	0.583984
0.154435	-0.456194	0.353516
0.118823	-0.0343192	0.607422
0.11563	0.063337	0.619141
0.115659	0.0672433	0.619141
0.115605	0.0711495	0.619141
0.115598	0.0750558	0.619141
0.11559	0.078962	0.619141
0.115508	0.0828683	0.619141
0.115494	0.0867745	0.619141
0.115485	0.0906808	0.619141
0.11546	0.094587	0.619141
0.11536	0.0984933	0.619141
0.115259	0.1024	0.619141
0.115253	0.106306	0.619141
0.115299	0.118025	0.619141
0.11564	0.121931	0.619141
0.15062	-0.4601	0.341797
0.158412	-0.0851005	0.353516
0.150592	-0.0851005	0.349609
0.154535	-0.0890067	0.345703
0.182108	-0.4601	0.345703
0.131312	-0.417132	0.552734
0.135025	-0.436663	0.544922
0.186012	-0.4601	0.345703
0.115613	0.110212	0.623047
0.115586	0.114118	0.623047
0.131287	-0.046038	0.583984
0.131206	-0.0421317	0.583984
0.131113	-0.0382255	0.583984
0.131027	-0.0343192	0.583984
0.162272	-0.0851005	0.349609
0.119354	-0.0343192	0.611328
0.119312	-0.030413	0.611328
0.119297	-0.0265067	0.611328
0.119336	-0.0226005	0.611328
0.119279	-0.0186942	0.611328
0.11929	-0.014788	0.611328
0.119314	-0.0108817	0.611328
0.119285	-0.00697547	0.611328
0.11927	-0.00306922	0.611328
0.119283	0.000837028	0.611328
0.119279	0.00474328	0.611328
0.119238	0.00864953	0.611328
0.11919	0.0125558	0.611328
0.119178	0.016462	0.611328
0.119233	0.0203683	0.611328
0.11916	0.0242745	0.611328
0.123083	-0.030413	0.599609
0.135048	-0.046038	0.583984
0.135137	-0.0421317	0.583984
0.135116	-0.0382255	0.583984
0.135115	-0.0343192	0.583984
0.162488	-0.4601	0.345703
0.158319	-0.452288	0.380859
0.139047	-0.432757	0.560547
0.127052	-0.030413	0.599609
0.150476	-0.456194	0.353516
0.138968	-0.046038	0.580078
0.13897	-0.0421317	0.580078
0.138881	-0.0382255	0.580078
0.138869	-0.0343192	0.580078
0.153809	-0.0890067	0.349609
0.154604	-0.0851005	0.349609
0.130958	-0.432757	0.556641
0.131016	-0.42885	0.556641
0.130931	-0.424944	0.556641
0.131262	-0.421038	0.556641
0.134756	-0.409319	0.548828
0.170401	-0.4601	0.345703
0.181745	-0.456194	0.353516
0.154385	-0.452288	0.376953
0.166466	-0.4601	0.345703
0.185801	-0.456194	0.353516
0.119531	0.0281808	0.615234
0.119532	0.032087	0.615234
0.119546	0.0359933	0.615234
0.119551	0.0398995	0.615234
0.119463	0.0438058	0.615234
0.119379	0.047712	0.615234
0.119352	0.0516183	0.615234
0.173971	-0.456194	0.341797
0.122707	-0.030413	0.603516
0.177741	-0.456194	0.341797
0.162161	-0.456194	0.349609
0.130878	-0.030413	0.595703
0.13891	-0.421038	0.564453
0.1269	-0.030413	0.603516
0.135165	-0.424944	0.552734
0.135072	-0.413225	0.552734
0.134907	-0.409319	0.552734
0.174307	-0.4601	0.345703
0.173805	-0.452288	0.345703
0.135033	0.0555245	0.611328
0.135081	0.0594308	0.611328
0.135033	0.063337	0.611328
0.135026	0.0672433	0.611328
0.135011	0.0711495	0.611328
0.134899	0.0750558	0.611328
0.134849	0.078962	0.611328
0.134793	0.0828683	0.611328
0.134805	0.0867745	0.611328
0.134843	0.0906808	0.611328
0.134847	0.094587	0.611328
0.134826	0.118025	0.611328
0.169926	-0.456194	0.349609
0.16987	-0.448382	0.349609
0.181721	-0.452288	0.361328
0.12291	-0.0343192	0.607422
0.166071	-0.456194	0.353516
0.178202	-0.4601	0.345703
0.158216	-0.448382	0.400391
0.139099	-0.42885	0.568359
0.138862	-0.424944	0.568359
0.135111	-0.0265067	0.607422
0.135114	-0.0226005	0.607422
0.135128	-0.0186942	0.607422
0.135114	-0.014788	0.607422
0.135112	-0.0108817	0.607422
0.135103	-0.00697547	0.607422
0.1351	-0.00306922	0.607422
0.135108	0.000837028	0.607422
0.135046	0.00474328	0.607422
0.135055	0.00864953	0.607422
0.135045	0.0125558	0.607422
0.134988	0.016462	0.607422
0.134925	0.0203683	0.607422
0.135009	0.0242745	0.607422
0.134918	0.0281808	0.607422
0.15046	-0.452288	0.369141
0.138931	-0.030413	0.599609
0.127071	-0.030413	0.607422
0.127015	-0.0265067	0.607422
0.126993	-0.0226005	0.607422
0.126976	-0.0108817	0.607422
0.126991	-0.00697547	0.607422
0.126958	-0.00306922	0.607422
0.13109	-0.0265067	0.607422
0.131111	-0.0226005	0.607422
0.131086	-0.0186942	0.607422
0.131118	-0.014788	0.607422
0.131096	-0.0108817	0.607422
0.13112	-0.00697547	0.607422
0.131006	-0.00306922	0.607422
0.131025	0.000837028	0.607422
0.131039	0.00474328	0.607422
0.131066	0.00864953	0.607422
0.130953	0.0125558	0.607422
0.130936	0.016462	0.607422
0.130922	0.0203683	0.607422
0.130895	0.0242745	0.607422
0.173905	-0.452288	0.349609
0.16209	-0.448382	0.369141
0.135189	0.0984933	0.615234
0.13515	0.1024	0.615234
0.135125	0.106306	0.615234
0.135155	0.110212	0.615234
0.135147	0.114118	0.615234
0.169974	-0.448382	0.353516
0.157984	-0.448382	0.404297
0.181469	-0.452288	0.365234
0.13489	-0.42885	0.556641
0.134411	-0.424944	0.556641
0.135071	-0.417132	0.556641
0.123152	-0.0343192	0.611328
0.123288	-0.030413	0.611328
0.123401	-0.0265067	0.611328
0.123384	-0.0226005	0.611328
0.1234	-0.0186942	0.611328
0.123371	-0.014788	0.611328
0.123365	-0.0108817	0.611328
0.123383	-0.00697547	0.611328
0.123387	-0.00306922	0.611328
0.123373	0.000837028	0.611328
0.123332	0.00474328	0.611328
0.123293	0.00864953	0.611328
0.123269	0.0125558	0.611328
0.123268	0.016462	0.611328
0.123245	0.0203683	0.611328
0.123244	0.0242745	0.611328
0.123273	0.0281808	0.611328
0.123195	0.032087	0.611328
0.123139	0.0359933	0.611328
0.123191	0.0398995	0.611328
0.123157	0.0438058	0.611328
0.135174	0.032087	0.611328
0.135185	0.0359933	0.611328
0.135164	0.0398995	0.611328
0.135105	0.0438058	0.611328
0.135096	0.047712	0.611328
0.135082	0.0516183	0.611328
0.189928	-0.4601	0.345703
0.189492	-0.456194	0.345703
0.185549	-0.452288	0.392578
0.138802	-0.0265067	0.603516
0.138763	-0.0226005	0.603516
0.13872	-0.0186942	0.603516
0.127351	-0.0186942	0.611328
0.127336	-0.014788	0.611328
0.127332	0.000837028	0.611328
0.127284	0.00474328	0.611328
0.127272	0.00864953	0.611328
0.127276	0.0125558	0.611328
0.127272	0.016462	0.611328
0.127272	0.0203683	0.611328
0.127266	0.0242745	0.611328
0.127271	0.0281808	0.611328
0.127157	0.032087	0.611328
0.127239	0.0359933	0.611328
0.127271	0.0398995	0.611328
0.127163	0.0438058	0.611328
0.127205	0.047712	0.611328
0.127134	0.0516183	0.611328
0.16211	-0.448382	0.373047
0.177874	-0.452288	0.357422
0.131205	0.0281808	0.611328
0.131219	0.032087	0.611328
0.131234	0.0359933	0.611328
0.131186	0.0398995	0.611328
0.131158	0.0438058	0.611328
0.131176	0.047712	0.611328
0.131156	0.0516183	0.611328
0.134988	-0.432757	0.560547
0.134422	-0.42885	0.560547
0.134801	-0.424944	0.560547
0.13499	-0.421038	0.560547
0.154314	-0.444475	0.431641
0.169977	-0.452288	0.361328
0.169975	-0.448382	0.361328
0.173832	-0.448382	0.353516
0.123321	0.047712	0.615234
0.123282	0.0516183	0.615234
0.158549	-0.444475	0.435547
0.165979	-0.448382	0.369141
0.154517	-0.448382	0.423828
0.182034	-0.0655692	0.474609
0.181882	-0.061663	0.474609
0.182027	-0.0577567	0.474609
0.162187	-0.452288	0.376953
0.161866	-0.448382	0.376953
0.150863	-0.444475	0.427734
0.139087	-0.014788	0.607422
0.139061	-0.0108817	0.607422
0.139051	-0.00697547	0.607422
0.13906	-0.00306922	0.607422
0.139077	0.000837028	0.607422
0.138997	0.00474328	0.607422
0.139052	0.00864953	0.607422
0.13904	0.0125558	0.607422
0.138988	0.016462	0.607422
0.138904	0.0203683	0.607422
0.138938	0.0242745	0.607422
0.138955	0.0281808	0.607422
0.138796	0.032087	0.607422
0.13877	0.0359933	0.607422
0.138741	0.0398995	0.607422
0.138706	0.0438058	0.607422
0.138692	0.0516183	0.607422
0.150342	-0.452288	0.404297
0.173782	-0.448382	0.357422
0.134782	-0.42885	0.564453
0.189417	-0.456194	0.357422
0.166111	-0.448382	0.373047
0.16205	-0.0655692	0.466797
0.158127	-0.444475	0.439453
0.162141	-0.448382	0.380859
0.154359	-0.440569	0.443359
0.181982	-0.0538505	0.478516
0.181654	-0.0499442	0.478516
0.139094	0.047712	0.611328
0.16988	-0.448382	0.369141
0.162491	-0.444475	0.443359
0.177574	-0.452288	0.373047
0.158511	-0.448382	0.431641
0.150519	-0.452288	0.412109
0.18176	-0.452288	0.392578
0.189505	-0.456194	0.361328
0.162347	-0.0655692	0.470703
0.158592	-0.444475	0.443359
0.166112	-0.452288	0.376953
0.165955	-0.448382	0.376953
0.17759	-0.0694755	0.447266
0.185629	-0.448382	0.427734
0.19381	-0.4601	0.345703
0.209196	-0.444475	0.337891
0.154425	-0.061663	0.486328
0.162552	-0.440569	0.447266
0.150777	-0.448382	0.419922
0.166425	-0.448382	0.380859
0.166078	-0.444475	0.451172
0.166358	-0.440569	0.451172
0.154262	-0.440569	0.458984
0.162007	-0.448382	0.396484
0.18593	-0.0694755	0.455078
0.209378	-0.4601	0.345703
0.162132	-0.0577567	0.486328
0.205529	-0.4601	0.345703
0.161922	-0.440569	0.451172
0.17786	-0.452288	0.392578
0.169861	-0.0694755	0.458984
0.208654	-0.444475	0.341797
0.177991	-0.0694755	0.458984
0.173408	-0.0694755	0.455078
0.165724	-0.440569	0.455078
0.15828	-0.0577567	0.482422
0.201637	-0.4601	0.345703
0.181653	-0.448382	0.423828
0.193466	-0.456194	0.361328
0.154304	-0.440569	0.474609
0.158651	-0.440569	0.474609
0.189555	-0.452288	0.392578
0.166108	-0.0655692	0.470703
0.165978	-0.448382	0.392578
0.162196	-0.061663	0.494141
0.161907	-0.0577567	0.494141
0.170174	-0.0694755	0.462891
0.197367	-0.4601	0.345703
0.169978	-0.444475	0.458984
0.157717	-0.0577567	0.486328
0.170007	-0.448382	0.419922
0.162156	-0.448382	0.416016
0.185554	-0.444475	0.501953
0.178004	-0.0655692	0.470703
0.177806	-0.061663	0.470703
0.17811	-0.0577567	0.470703
0.205541	-0.471819	0.357422
0.217003	-0.444475	0.337891
0.185709	-0.0655692	0.470703
0.158071	-0.440569	0.482422
0.174284	-0.0694755	0.466797
0.1662	-0.0577567	0.478516
0.201538	-0.467913	0.353516
0.174095	-0.448382	0.423828
0.165933	-0.444475	0.470703
0.157936	-0.061663	0.490234
0.17005	-0.0655692	0.470703
0.169974	-0.061663	0.470703
0.170059	-0.0577567	0.470703
0.209143	-0.456194	0.369141
0.16208	-0.448382	0.419922
0.162372	-0.0577567	0.501953
0.162337	-0.0538505	0.501953
0.150276	-0.440569	0.509766
0.149909	-0.436663	0.509766
0.197408	-0.456194	0.357422
0.185454	-0.444475	0.505859
0.177781	-0.448382	0.423828
0.169611	-0.444475	0.470703
0.150174	-0.061663	0.560547
0.17811	-0.0538505	0.474609
0.185875	-0.061663	0.474609
0.166136	-0.061663	0.482422
0.205214	-0.456194	0.361328
0.166087	-0.444475	0.474609
0.162528	-0.440569	0.478516
0.162491	-0.436663	0.478516
0.169806	-0.448382	0.431641
0.154772	-0.436663	0.490234
0.173858	-0.0655692	0.470703
0.173941	-0.0577567	0.470703
0.173891	-0.0538505	0.470703
0.201221	-0.456194	0.357422
0.166078	-0.448382	0.416016
0.158276	-0.440569	0.490234
0.158647	-0.436663	0.490234
0.170101	-0.0538505	0.474609
0.178149	-0.268694	0.572266
0.216449	-0.444475	0.349609
0.193375	-0.452288	0.392578
0.185998	-0.0577567	0.478516
0.185701	-0.0538505	0.478516
0.185792	-0.444475	0.509766
0.177812	-0.444475	0.505859
0.150479	-0.440569	0.513672
0.16173	-0.436663	0.482422
0.150019	-0.0577567	0.568359
0.153866	-0.061663	0.560547
0.173761	-0.448382	0.439453
0.1743	-0.061663	0.474609
0.158617	-0.432757	0.494141
0.17422	0.0555245	0.599609
0.174208	0.0594308	0.599609
0.174238	0.063337	0.599609
0.174192	0.0672433	0.599609
0.174193	0.0711495	0.599609
0.174142	0.0750558	0.599609
0.174113	0.078962	0.599609
0.174107	0.0828683	0.599609
0.174098	0.0867745	0.599609
0.174085	0.0906808	0.599609
0.17416	0.094587	0.599609
0.174126	0.0984933	0.599609
0.174186	0.1024	0.599609
0.174199	0.106306	0.599609
0.174045	0.110212	0.599609
0.174005	0.114118	0.599609
0.166221	-0.440569	0.490234
0.165813	-0.448382	0.427734
0.177994	-0.284319	0.576172
0.177965	-0.280413	0.576172
0.178176	-0.2726	0.576172
0.178209	-0.264788	0.576172
0.166236	-0.0538505	0.501953
0.177913	-0.440569	0.509766
0.162591	-0.448382	0.439453
0.189582	-0.448382	0.435547
0.181633	-0.448382	0.474609
0.18174	-0.444475	0.498047
0.161854	-0.440569	0.486328
0.158168	-0.432757	0.498047
0.170193	-0.448382	0.455078
0.150459	-0.0577567	0.572266
0.150405	-0.0499442	0.572266
0.181507	-0.061663	0.580078
0.173896	-0.444475	0.501953
0.18557	-0.0499442	0.494141
0.170046	-0.444475	0.498047
0.170029	-0.440569	0.498047
0.15423	-0.440569	0.513672
0.153817	-0.436663	0.513672
0.154415	-0.0577567	0.572266
0.154372	-0.0538505	0.572266
0.154346	-0.0499442	0.572266
0.20899	-0.452288	0.408203
0.177806	-0.319475	0.580078
0.17792	-0.315569	0.580078
0.177778	-0.311663	0.580078
0.177843	-0.307757	0.580078
0.178168	-0.30385	0.580078
0.178148	-0.299944	0.580078
0.178167	-0.296038	0.580078
0.178166	-0.292132	0.580078
0.178187	-0.288225	0.580078
0.178181	-0.276507	0.580078
0.177595	-0.2726	0.580078
0.177626	-0.268694	0.580078
0.177612	-0.264788	0.580078
0.178199	-0.260882	0.580078
0.178185	-0.256975	0.580078
0.178067	-0.253069	0.580078
0.178208	-0.249163	0.580078
0.178203	-0.245257	0.580078
0.178165	-0.24135	0.580078
0.178176	-0.237444	0.580078
0.178115	-0.229632	0.580078
0.178179	-0.225725	0.580078
0.150539	-0.436663	0.529297
0.17758	-0.448382	0.455078
0.158239	-0.061663	0.521484
0.185956	-0.440569	0.529297
0.185607	-0.436663	0.529297
0.177618	-0.440569	0.517578
0.162181	-0.440569	0.490234
0.193384	-0.0694755	0.455078
0.181344	-0.0577567	0.583984
0.150803	-0.061663	0.576172
0.150798	-0.0538505	0.576172
0.150772	-0.046038	0.576172
0.150631	-0.0421317	0.576172
0.150686	-0.0382255	0.576172
0.150604	-0.0343192	0.576172
0.181575	-0.444475	0.501953
0.154563	-0.440569	0.517578
0.19336	-0.444475	0.466797
0.174075	-0.440569	0.505859
0.181796	-0.448382	0.478516
0.174002	-0.448382	0.458984
0.158589	0.0555245	0.603516
0.158406	0.0594308	0.603516
0.158324	0.063337	0.603516
0.158317	0.0672433	0.603516
0.158427	0.0711495	0.603516
0.158401	0.0750558	0.603516
0.158307	0.078962	0.603516
0.158232	0.0828683	0.603516
0.158225	0.0867745	0.603516
0.15822	0.0906808	0.603516
0.158211	0.094587	0.603516
0.158253	0.0984933	0.603516
0.158227	0.1024	0.603516
0.15824	0.106306	0.603516
0.158284	0.114118	0.603516
0.201271	-0.444475	0.478516
0.213073	-0.444475	0.337891
0.197295	-0.452288	0.400391
0.166484	-0.436663	0.501953
0.15041	0.063337	0.603516
0.154736	-0.061663	0.576172
0.154702	-0.046038	0.576172
0.154657	-0.0421317	0.576172
0.154641	-0.0382255	0.576172
0.154633	-0.0343192	0.576172
0.162178	0.0555245	0.599609
0.16211	0.0594308	0.599609
0.162155	0.063337	0.599609
0.162138	0.0750558	0.599609
0.166343	-0.448382	0.447266
0.217129	-0.4601	0.349609
0.216751	-0.456194	0.349609
0.216456	-0.452288	0.349609
0.21649	-0.448382	0.349609
0.228757	-0.444475	0.341797
0.157958	-0.436663	0.513672
0.205367	-0.0655692	0.482422
0.205274	-0.061663	0.482422
0.205183	-0.0577567	0.482422
0.205229	-0.0538505	0.482422
0.177825	-0.448382	0.458984
0.205087	-0.452288	0.404297
0.20118	-0.452288	0.404297
0.178024	-0.2726	0.583984
0.178175	-0.268694	0.583984
0.178183	-0.264788	0.583984
0.178209	-0.233538	0.583984
0.181644	-0.2726	0.568359
0.162492	-0.436663	0.494141
0.169993	-0.436663	0.517578
0.158543	0.110212	0.607422
0.15869	0.118025	0.607422
0.17001	-0.0499442	0.521484
0.178146	-0.440569	0.521484
0.189795	-0.0694755	0.458984
0.185144	-0.436663	0.533203
0.162478	0.0672433	0.603516
0.162472	0.0711495	0.603516
0.162438	0.078962	0.603516
0.162328	0.0828683	0.603516
0.162361	0.0867745	0.603516
0.162314	0.0906808	0.603516
0.162348	0.094587	0.603516
0.162374	0.0984933	0.603516
0.162305	0.1024	0.603516
0.162263	0.106306	0.603516
0.16223	0.110212	0.603516
0.162364	0.114118	0.603516
0.193484	-0.448382	0.435547
0.161761	-0.061663	0.560547
0.212491	-0.452288	0.345703
0.166013	-0.436663	0.505859
0.181612	-0.448382	0.482422
0.150762	0.0555245	0.607422
0.150765	0.0594308	0.607422
0.150743	0.0672433	0.607422
0.150761	0.0711495	0.607422
0.150737	0.0750558	0.607422
0.150677	0.078962	0.607422
0.15061	0.0828683	0.607422
0.150592	0.0867745	0.607422
0.150615	0.0906808	0.607422
0.150603	0.094587	0.607422
0.150555	0.0984933	0.607422
0.150592	0.1024	0.607422
0.150627	0.106306	0.607422
0.150511	0.110212	0.607422
0.15063	0.114118	0.607422
0.150742	0.118025	0.607422
0.181927	-0.061663	0.587891
0.181857	-0.0577567	0.587891
0.181903	-0.0538505	0.587891
0.181983	-0.0499442	0.587891
0.181929	-0.046038	0.587891
0.181908	-0.0421317	0.587891
0.181898	-0.0382255	0.587891
0.181686	-0.0343192	0.587891
0.174244	-0.436663	0.509766
0.193342	-0.444475	0.474609
0.154567	-0.436663	0.529297
0.212415	-0.444475	0.345703
0.181679	-0.280413	0.572266
0.181302	-0.2726	0.572266
0.181725	-0.268694	0.572266
0.181732	-0.444475	0.513672
0.177682	-0.319475	0.587891
0.150393	-0.432757	0.552734
0.150815	-0.42885	0.552734
0.158336	-0.436663	0.529297
0.18574	-0.233538	0.568359
0.209441	-0.0694755	0.474609
0.154395	0.0555245	0.603516
0.154353	0.0594308	0.603516
0.15431	0.063337	0.603516
0.154322	0.0672433	0.603516
0.154308	0.0711495	0.603516
0.154342	0.0750558	0.603516
0.154304	0.0984933	0.603516
0.205447	-0.0499442	0.490234
0.150718	-0.030413	0.599609
0.150577	-0.0265067	0.599609
0.150561	-0.0226005	0.599609
0.150515	-0.0186942	0.599609
0.150537	-0.014788	0.599609
0.150564	-0.0108817	0.599609
0.150504	-0.00697547	0.599609
0.15046	-0.00306922	0.599609
0.150526	0.000837028	0.599609
0.150488	0.00474328	0.599609
0.216806	-0.456194	0.361328
0.16974	-0.0499442	0.529297
0.154667	-0.030413	0.599609
0.15454	-0.0265067	0.599609
0.154539	-0.0226005	0.599609
0.15454	-0.0186942	0.599609
0.154553	-0.014788	0.599609
0.154521	-0.0108817	0.599609
0.154522	-0.00697547	0.599609
0.154446	-0.00306922	0.599609
0.154449	0.000837028	0.599609
0.154396	0.00474328	0.599609
0.154319	0.00864953	0.599609
0.154303	0.0125558	0.599609
0.154323	0.0203683	0.599609
0.197721	-0.0694755	0.458984
0.169552	-0.436663	0.521484
0.189547	-0.0655692	0.462891
0.166038	-0.436663	0.509766
0.213305	-0.4601	0.349609
0.193621	-0.444475	0.478516
0.189475	-0.444475	0.478516
0.201215	-0.440569	0.494141
0.173819	-0.440569	0.513672
0.173695	-0.436663	0.513672
0.193706	-0.0655692	0.474609
0.193491	-0.061663	0.474609
0.182009	-0.030413	0.591797
0.182031	-0.0265067	0.591797
0.182035	-0.0226005	0.591797
0.181998	-0.0186942	0.591797
0.181891	-0.014788	0.591797
0.181872	-0.0108817	0.591797
0.181936	-0.00697547	0.591797
0.181841	-0.00306922	0.591797
0.181806	0.000837028	0.591797
0.181722	0.00474328	0.591797
0.181662	0.00864953	0.591797
0.181675	0.0125558	0.591797
0.181655	0.0281808	0.591797
0.174312	-0.237444	0.568359
0.174282	-0.233538	0.568359
0.228027	-0.444475	0.361328
0.170409	-0.237444	0.568359
0.157794	-0.061663	0.556641
0.181807	-0.448382	0.490234
0.178209	-0.319475	0.591797
0.166184	0.0555245	0.599609
0.166143	0.0594308	0.599609
0.166119	0.063337	0.599609
0.166121	0.0672433	0.599609
0.166118	0.0711495	0.599609
0.16612	0.0750558	0.599609
0.166105	0.078962	0.599609
0.166118	0.0828683	0.599609
0.166103	0.0867745	0.599609
0.166073	0.0906808	0.599609
0.166061	0.094587	0.599609
0.166017	0.0984933	0.599609
0.166058	0.106306	0.599609
0.166114	0.110212	0.599609
0.150756	0.00864953	0.603516
0.15069	0.0125558	0.603516
0.150691	0.016462	0.603516
0.150654	0.0203683	0.603516
0.150565	0.0242745	0.603516
0.150518	0.0281808	0.603516
0.150458	0.032087	0.603516
0.150503	0.0359933	0.603516
0.150437	0.0398995	0.603516
0.150434	0.0438058	0.603516
0.154639	0.078962	0.607422
0.154572	0.0828683	0.607422
0.154619	0.0867745	0.607422
0.154665	0.0906808	0.607422
0.154685	0.094587	0.607422
0.154683	0.1024	0.607422
0.154634	0.106306	0.607422
0.154546	0.110212	0.607422
0.15467	0.114118	0.607422
0.181915	-0.440569	0.517578
0.162113	-0.061663	0.568359
0.161794	-0.436663	0.517578
0.165541	-0.061663	0.560547
0.181803	-0.288225	0.576172
0.181322	-0.280413	0.576172
0.181982	-0.2726	0.576172
0.182091	-0.249163	0.576172
0.182111	-0.233538	0.576172
0.182113	-0.221819	0.576172
0.154737	0.016462	0.603516
0.154721	0.0242745	0.603516
0.154695	0.0281808	0.603516
0.154644	0.032087	0.603516
0.154634	0.0359933	0.603516
0.154634	0.0398995	0.603516
0.154578	0.0438058	0.603516
0.154386	0.047712	0.603516
0.154387	0.0516183	0.603516
0.170145	0.0555245	0.599609
0.1702	0.0594308	0.599609
0.170171	0.063337	0.599609
0.170166	0.0672433	0.599609
0.170127	0.0711495	0.599609
0.170085	0.0750558	0.599609
0.170138	0.078962	0.599609
0.170121	0.0828683	0.599609
0.170035	0.0867745	0.599609
0.17004	0.0906808	0.599609
0.170137	0.094587	0.599609
0.170136	0.0984933	0.599609
0.170138	0.1024	0.599609
0.170117	0.106306	0.599609
0.170059	0.110212	0.599609
0.170042	0.114118	0.599609
0.208999	-0.0655692	0.478516
0.185869	-0.436663	0.544922
0.150055	-0.42885	0.564453
0.154479	-0.432757	0.552734
0.166014	-0.436663	0.513672
0.185784	-0.237444	0.572266
0.181988	0.0555245	0.595703
0.182042	0.0594308	0.595703
0.181933	0.063337	0.595703
0.18189	0.0672433	0.595703
0.181886	0.0711495	0.595703
0.181964	0.0750558	0.595703
0.181997	0.078962	0.595703
0.181945	0.0828683	0.595703
0.181881	0.0867745	0.595703
0.181953	0.0906808	0.595703
0.181981	0.094587	0.595703
0.181904	0.0984933	0.595703
0.181926	0.1024	0.595703
0.181783	0.106306	0.595703
0.18173	0.110212	0.595703
0.189231	-0.444475	0.482422
0.177644	-0.448382	0.482422
0.232572	-0.444475	0.345703
0.150802	0.047712	0.607422
0.150801	0.0516183	0.607422
0.166423	0.1024	0.603516
0.166415	0.114118	0.603516
0.20905	-0.448382	0.451172
0.173847	-0.440569	0.517578
0.177965	0.0555245	0.595703
0.177912	0.0594308	0.595703
0.177773	0.063337	0.595703
0.177744	0.0672433	0.595703
0.177763	0.0711495	0.595703
0.177749	0.0750558	0.595703
0.177864	0.078962	0.595703
0.177807	0.0828683	0.595703
0.177817	0.0867745	0.595703
0.177853	0.0906808	0.595703
0.177887	0.094587	0.595703
0.17778	0.0984933	0.595703
0.181677	-0.436663	0.525391
0.224759	-0.444475	0.341797
0.197267	-0.448382	0.435547
0.189811	-0.061663	0.474609
0.165672	-0.0577567	0.564453
0.177843	-0.436663	0.541016
0.162113	-0.436663	0.529297
0.158316	-0.061663	0.560547
0.162487	-0.0577567	0.572266
0.162441	-0.0538505	0.572266
0.162446	-0.0499442	0.572266
0.162443	-0.046038	0.572266
0.162218	-0.0421317	0.572266
0.162192	-0.0382255	0.572266
0.162169	-0.0343192	0.572266
0.193417	-0.0577567	0.478516
0.158668	-0.432757	0.556641
0.182013	0.016462	0.595703
0.182037	0.0203683	0.595703
0.182033	0.0242745	0.595703
0.182079	0.032087	0.595703
0.182037	0.0359933	0.595703
0.182007	0.0398995	0.595703
0.182011	0.0438058	0.595703
0.181991	0.047712	0.595703
0.181993	0.0516183	0.595703
0.173919	-0.311663	0.572266
0.174296	-0.264788	0.572266
0.173784	-0.237444	0.572266
0.201311	-0.448382	0.443359
0.205189	-0.0421317	0.505859
0.209162	-0.061663	0.482422
0.209194	-0.0577567	0.482422
0.177416	-0.0577567	0.576172
0.212906	-0.456194	0.361328
0.150793	-0.42885	0.568359
0.181684	-0.311663	0.580078
0.18188	-0.299944	0.580078
0.182046	-0.296038	0.580078
0.182055	-0.292132	0.580078
0.182082	-0.284319	0.580078
0.182088	-0.280413	0.580078
0.182092	-0.276507	0.580078
0.182105	-0.264788	0.580078
0.182052	-0.260882	0.580078
0.182011	-0.256975	0.580078
0.182063	-0.253069	0.580078
0.182006	-0.245257	0.580078
0.182035	-0.24135	0.580078
0.182072	-0.237444	0.580078
0.182065	-0.229632	0.580078
0.182112	-0.225725	0.580078
0.197295	-0.0655692	0.474609
0.205173	-0.448382	0.443359
0.170202	-0.436663	0.537109
0.201152	-0.440569	0.509766
0.193272	-0.444475	0.490234
0.154775	-0.42885	0.560547
0.197333	-0.444475	0.474609
0.173569	-0.061663	0.568359
0.173346	-0.0577567	0.568359
0.182054	0.114118	0.599609
0.185796	-0.288225	0.576172
0.185583	-0.280413	0.576172
0.185557	-0.2726	0.576172
0.185994	-0.268694	0.576172
0.185704	-0.264788	0.576172
0.185787	-0.256975	0.576172
0.185853	-0.253069	0.576172
0.185907	-0.249163	0.576172
0.185941	-0.24135	0.576172
0.185365	-0.233538	0.576172
0.186018	-0.229632	0.576172
0.186017	-0.225725	0.576172
0.186023	-0.217913	0.576172
0.185995	-0.214007	0.576172
0.228338	-0.456194	0.365234
0.228028	-0.452288	0.365234
0.181515	-0.436663	0.529297
0.189764	-0.0577567	0.478516
0.178136	0.1024	0.599609
0.178158	0.106306	0.599609
0.17801	0.110212	0.599609
0.178099	0.114118	0.599609
0.157852	-0.061663	0.564453
0.169479	-0.061663	0.560547
0.209043	-0.444475	0.482422
0.174221	-0.319475	0.576172
0.173689	-0.311663	0.576172
0.174268	-0.30385	0.576172
0.174284	-0.280413	0.576172
0.173821	-0.264788	0.576172
0.185646	-0.432757	0.560547
0.205474	-0.0382255	0.509766
0.205448	-0.0343192	0.509766
0.205341	-0.030413	0.509766
0.220662	-0.456194	0.353516
0.22059	-0.448382	0.353516
0.201201	-0.0655692	0.478516
0.150845	-0.424944	0.572266
0.166189	-0.061663	0.568359
0.166071	-0.0421317	0.568359
0.193736	-0.0538505	0.482422
0.182083	-0.319475	0.583984
0.182081	-0.315569	0.583984
0.182114	-0.307757	0.583984
0.182107	-0.30385	0.583984
0.197471	-0.061663	0.478516
0.224604	-0.456194	0.357422
0.177814	-0.0577567	0.580078
0.177848	-0.0499442	0.580078
0.178015	-0.046038	0.580078
0.209281	-0.0538505	0.486328
0.231962	-0.444475	0.357422
0.185583	0.063337	0.591797
0.185564	0.0672433	0.591797
0.185558	0.0984933	0.591797
0.189533	-0.444475	0.501953
0.193531	-0.444475	0.498047
0.177891	-0.448382	0.494141
0.185674	-0.311663	0.580078
0.18565	-0.307757	0.580078
0.18563	-0.30385	0.580078
0.18574	-0.299944	0.580078
0.185953	-0.296038	0.580078
0.185963	-0.292132	0.580078
0.185995	-0.284319	0.580078
0.185999	-0.276507	0.580078
0.186013	-0.260882	0.580078
0.185872	-0.245257	0.580078
0.185963	-0.233538	0.580078
0.185955	-0.221819	0.580078
0.201205	-0.440569	0.517578
0.221049	-0.444475	0.337891
0.173885	-0.061663	0.572266
0.174092	-0.0577567	0.572266
0.174045	-0.0538505	0.572266
0.174144	-0.0499442	0.572266
0.174247	-0.046038	0.572266
0.174177	-0.0421317	0.572266
0.173974	-0.0382255	0.572266
0.166075	-0.436663	0.533203
0.201439	0.0555245	0.525391
0.201216	0.0594308	0.525391
0.201268	0.063337	0.525391
0.154004	-0.42885	0.568359
0.224454	-0.444475	0.357422
0.17781	-0.432757	0.556641
0.201576	-0.061663	0.482422
0.201525	-0.0577567	0.482422
0.201545	-0.0538505	0.482422
0.201245	-0.046038	0.482422
0.193422	-0.296038	0.572266
0.162149	-0.030413	0.591797
0.189793	-0.0538505	0.482422
0.150357	-0.424944	0.576172
0.166426	-0.0577567	0.572266
0.166417	-0.0538505	0.572266
0.166421	-0.0499442	0.572266
0.166415	-0.046038	0.572266
0.166227	-0.0382255	0.572266
0.166247	-0.0343192	0.572266
0.158635	-0.42885	0.576172
0.173814	-0.319475	0.580078
0.174291	-0.288225	0.580078
0.174249	-0.284319	0.580078
0.205477	-0.0265067	0.513672
0.205347	-0.0226005	0.513672
0.205229	-0.0186942	0.513672
0.205205	-0.014788	0.513672
0.205081	-0.0108817	0.513672
0.220218	-0.452288	0.357422
0.224194	-0.452288	0.361328
0.173878	-0.436663	0.537109
0.197731	-0.0577567	0.482422
0.197461	-0.0538505	0.482422
0.177853	-0.0538505	0.583984
0.177764	-0.0382255	0.583984
0.181762	-0.436663	0.541016
0.193378	-0.046038	0.486328
0.158457	-0.061663	0.572266
0.158356	-0.0577567	0.572266
0.158307	-0.0538505	0.572266
0.158374	-0.0499442	0.572266
0.158319	-0.046038	0.572266
0.158257	-0.0421317	0.572266
0.158256	-0.0382255	0.572266
0.158212	-0.0343192	0.572266
0.201378	-0.0499442	0.486328
0.228672	-0.456194	0.376953
0.185919	0.0555245	0.595703
0.185964	0.0594308	0.595703
0.185913	0.0711495	0.595703
0.185891	0.0750558	0.595703
0.185892	0.078962	0.595703
0.185888	0.0828683	0.595703
0.185923	0.0867745	0.595703
0.185916	0.0906808	0.595703
0.185946	0.094587	0.595703
0.185962	0.1024	0.595703
0.185819	0.106306	0.595703
0.18571	0.110212	0.595703
0.185689	0.114118	0.595703
0.201081	-0.440569	0.521484
0.185066	-0.0577567	0.580078
0.185108	-0.0538505	0.580078
0.169954	-0.061663	0.568359
0.169934	-0.0421317	0.568359
0.185362	-0.432757	0.576172
0.186019	-0.319475	0.583984
0.185988	-0.315569	0.583984
0.170051	-0.432757	0.560547
0.205471	0.0555245	0.525391
0.205417	0.0594308	0.525391
0.205294	0.063337	0.525391
0.205283	0.0672433	0.525391
0.205145	0.0711495	0.525391
0.205193	0.0750558	0.525391
0.162252	-0.0265067	0.595703
0.162148	-0.0226005	0.595703
0.162267	-0.0186942	0.595703
0.16221	-0.014788	0.595703
0.162146	-0.0108817	0.595703
0.201149	0.0594308	0.529297
0.200971	0.063337	0.529297
0.205247	-0.444475	0.482422
0.216873	-0.452288	0.412109
0.173862	-0.0343192	0.576172
0.197513	-0.046038	0.486328
0.154778	-0.42885	0.572266
0.154772	-0.424944	0.572266
0.205523	-0.00697547	0.517578
0.205474	-0.00306922	0.517578
0.205443	0.000837028	0.517578
0.205333	0.00474328	0.517578
0.205279	0.00864953	0.517578
0.205142	0.0125558	0.517578
0.205114	0.016462	0.517578
0.20517	0.0203683	0.517578
0.162521	-0.432757	0.560547
0.174258	-0.319475	0.583984
0.174255	-0.315569	0.583984
0.193425	-0.30385	0.576172
0.193487	-0.299944	0.576172
0.193752	-0.292132	0.576172
0.193777	-0.288225	0.576172
0.193656	-0.284319	0.576172
0.193565	-0.280413	0.576172
0.193552	-0.276507	0.576172
0.193382	-0.2726	0.576172
0.193377	-0.268694	0.576172
0.19359	-0.264788	0.576172
0.193655	-0.260882	0.576172
0.193417	-0.24135	0.576172
0.193406	-0.233538	0.576172
0.193406	-0.229632	0.576172
0.193404	-0.225725	0.576172
0.193445	-0.221819	0.576172
0.193488	-0.217913	0.576172
0.193454	-0.214007	0.576172
0.193523	-0.2101	0.576172
0.19359	-0.206194	0.576172
0.197269	-0.440569	0.505859
0.220467	-0.444475	0.353516
0.178182	-0.0421317	0.587891
0.17798	-0.0343192	0.587891
0.18968	-0.0499442	0.490234
0.189689	0.0555245	0.591797
0.189623	0.0594308	0.591797
0.189578	0.063337	0.591797
0.189568	0.0672433	0.591797
0.189467	0.0711495	0.591797
0.189571	0.0750558	0.591797
0.189635	0.078962	0.591797
0.189615	0.0828683	0.591797
0.189487	0.0867745	0.591797
0.189494	0.0984933	0.591797
0.189625	0.1024	0.591797
0.189498	0.106306	0.591797
0.158045	-0.42885	0.583984
0.158218	-0.424944	0.583984
0.193676	-0.0499442	0.490234
0.209148	-0.440569	0.505859
0.209231	-0.0421317	0.505859
0.20912	-0.0382255	0.505859
0.205524	0.078962	0.529297
0.170198	-0.42885	0.564453
0.170405	-0.385882	0.564453
0.170391	-0.381975	0.564453
0.224665	-0.456194	0.373047
0.170385	-0.0577567	0.572266
0.170383	-0.0538505	0.572266
0.170367	-0.0499442	0.572266
0.170368	-0.046038	0.572266
0.170274	-0.0382255	0.572266
0.170351	-0.0343192	0.572266
0.220841	-0.456194	0.373047
0.178061	-0.346819	0.576172
0.177966	-0.3351	0.576172
0.189511	-0.276507	0.572266
0.189529	-0.214007	0.572266
0.185713	-0.0577567	0.587891
0.185779	-0.0538505	0.587891
0.185812	-0.0499442	0.587891
0.185712	-0.046038	0.587891
0.185694	-0.0421317	0.587891
0.185764	-0.0382255	0.587891
0.18567	-0.0343192	0.587891
0.185585	-0.030413	0.587891
0.185621	-0.0265067	0.587891
0.185634	-0.0226005	0.587891
0.197696	-0.0499442	0.490234
0.173629	-0.0343192	0.580078
0.193736	-0.319475	0.580078
0.193774	-0.315569	0.580078
0.193771	-0.311663	0.580078
