1892.49	1524	2020
1900.37	1524	2020
1684.81	1476	1980
1692.73	1476	1980
1700.56	1476	1980
1708.18	1476	1980
2052.58	1444	2100
2060.53	1444	2100
2068.33	1444	2100
1524.83	1508	1924
1532.7	1508	1924
1644.79	1468	1972
1652.56	1468	1972
1660.27	1468	1972
1668.08	1468	1972
1860.75	1452	2044
1868.46	1452	2044
1876.14	1452	2044
1884.02	1452	2044
1484.85	1460	1932
1492.65	1460	1932
1500.42	1460	1932
1508.23	1460	1932
1676.66	1484	1972
1684.49	1484	1972
1828.68	1484	2020
1836.49	1484	2020
1844.27	1484	2020
2076.73	1524	2076
2084.4	1524	2076
2092.08	1524	2076
1852.9	1444	2044
1860.75	1444	2044
1868.67	1444	2044
1876.42	1444	2044
1884.3	1444	2044
1852.79	1540	2004
1860.47	1540	2004
1868.26	1540	2004
2052.56	1484	2084
2060.43	1484	2084
2068.06	1484	2084
1868.76	1460	2044
1876.58	1460	2044
1884.27	1460	2044
1836.79	1548	1996
1844.54	1548	1996
1852.21	1548	1996
2060.91	1500	2084
2068.71	1500	2084
2076.46	1500	2084
2084.32	1500	2084
2092.11	1500	2084
1812.79	1588	1964
1820.55	1588	1964
1828.22	1588	1964
1716.69	1524	1972
1724.5	1524	1972
1732.24	1524	1972
1684.6	1556	1948
1692.42	1556	1948
1700.09	1556	1948
1708.8	1492	1980
1716.44	1492	1980
1724.17	1492	1980
1676.86	1540	1956
1684.7	1540	1956
1692.67	1540	1956
1700.38	1540	1956
1868.53	1516	2020
1876.37	1516	2020
1884.28	1516	2020
1892.07	1516	2020
1652.95	1580	1924
1660.95	1580	1924
1668.53	1580	1924
1676.52	1580	1924
1684.15	1580	1924
1500.72	1484	1924
1508.47	1484	1924
1516.2	1484	1924
1836.49	1468	2028
1844.19	1468	2028
1660.78	1500	1964
1668.35	1500	1964
1676.07	1500	1964
1692.79	1444	1996
1700.65	1444	1996
1708.31	1444	1996
2052.25	1476	2084
1716.68	1460	1996
1724.48	1460	1996
1732.11	1460	1996
2068.77	1452	2100
2076.33	1452	2100
2084.28	1452	2100
2092	1452	2100
1756.68	1532	1980
1764.59	1532	1980
1772.33	1532	1980
1780.01	1532	1980
1660.72	1564	1940
1668.57	1564	1940
1676.38	1564	1940
1684.13	1564	1940
1724.76	1548	1964
1732.67	1548	1964
1740.51	1548	1964
1748.19	1548	1964
1916.92	1532	2028
1924.66	1532	2028
1932.5	1532	2028
1940.15	1532	2028
1660.66	1572	1932
1668.52	1572	1932
1676.06	1572	1932
1796.74	1596	1956
1804.64	1596	1956
1812.15	1596	1956
1820.24	1596	1956
1500.76	1452	1940
1508.61	1452	1940
1516.31	1452	1940
2084.79	1532	2076
2092.67	1532	2076
2100.5	1532	2076
2108.1	1532	2076
1844.52	1476	2028
1852.44	1476	2028
1860.08	1476	2028
1860.72	1492	2028
1868.5	1492	2028
1876.32	1492	2028
1876.76	1500	2028
1884.51	1500	2028
2084.89	1516	2084
2092.69	1516	2084
2100.48	1516	2084
2108.24	1516	2084
2052.72	1468	2092
2060.59	1468	2092
2068.29	1468	2092
1716.84	1476	1988
1724.47	1476	1988
1732.28	1476	1988
1700.81	1452	1996
1708.5	1452	1996
1716.14	1452	1996
1500.76	1468	1932
1508.64	1468	1932
1516.45	1468	1932
1852.88	1564	1996
1860.68	1564	1996
1868.51	1564	1996
1876.08	1564	1996
1724.88	1516	1980
1732.71	1516	1980
1740.53	1516	1980
1748.36	1516	1980
1756.02	1516	1980
2076.7	1444	2108
2084.36	1444	2108
2092.28	1444	2108
1892.65	1452	2052
1900.5	1452	2052
1908.22	1452	2052
1676.71	1468	1980
1684.48	1468	1980
1692.15	1468	1980
1908.79	1524	2028
1916.64	1524	2028
1924.58	1524	2028
1932.34	1524	2028
2052.65	1564	2052
2060.58	1564	2052
2108.48	1508	2092
2116.22	1508	2092
1852.76	1484	2028
1860.41	1484	2028
1876.83	1540	2012
1884.74	1540	2012
1892.22	1540	2012
1900.05	1540	2012
2100.75	1524	2084
2108.59	1524	2084
2116.47	1524	2084
2124.17	1524	2084
1876.75	1556	2004
1884.38	1556	2004
1892.05	1556	2004
1884.78	1508	2028
1892.54	1508	2028
1900.28	1508	2028
2052.13	1460	2084
1740.81	1524	1980
1748.65	1524	1980
1756.41	1524	1980
1764.28	1524	1980
2076.48	1484	2092
2084.07	1484	2092
1692.74	1508	1972
1700.47	1508	1972
1708.29	1508	1972
1716.06	1508	1972
1692.89	1484	1980
1700.82	1484	1980
1708.46	1484	1980
1716.17	1484	1980
1796.57	1580	1964
1804.34	1580	1964
1708.78	1540	1964
1716.57	1540	1964
1724.41	1540	1964
1516.64	1460	1940
1524.36	1460	1940
1532.12	1460	1940
1900.83	1516	2028
1908.32	1516	2028
1916.02	1516	2028
1924.03	1516	2028
1892.78	1460	2052
1900.58	1460	2052
1908.49	1460	2052
1916.18	1460	2052
1708.71	1556	1956
1716.44	1556	1956
1724.29	1556	1956
1732.02	1556	1956
1732.69	1492	1988
1740.6	1492	1988
1748.36	1492	1988
1756.13	1492	1988
1892.87	1444	2052
1900.61	1444	2052
1908.48	1444	2052
1916.42	1444	2052
1924.23	1444	2052
1932.36	1444	2052
1836.8	1588	1972
1844.6	1588	1972
1852.4	1588	1972
1692.64	1564	1948
1700.34	1564	1948
1708.27	1564	1948
2100.45	1500	2092
2108.1	1500	2092
1860.77	1548	2004
1868.5	1548	2004
1876.37	1548	2004
1716.75	1444	2004
1724.47	1444	2004
1732.15	1444	2004
1740.07	1444	2004
1748.98	1588	1948
1756.96	1588	1948
1764.84	1588	1948
1772.58	1588	1948
1780.17	1588	1948
1684.68	1500	1972
1692.55	1500	1972
1700.38	1500	1972
1708.17	1500	1972
2052.8	1492	2084
2060.67	1492	2084
2068.5	1492	2084
2076.17	1492	2084
1948.85	1532	2036
1956.66	1532	2036
1964.44	1532	2036
1972.03	1532	2036
1524.84	1484	1932
1532.54	1484	1932
1852.68	1468	2036
1860.58	1468	2036
1868.36	1468	2036
1788.49	1532	1988
1740.84	1460	2004
1748.72	1460	2004
1756.62	1460	2004
1764.36	1460	2004
1772.19	1460	2004
2060.77	1476	2092
2068.45	1476	2092
1868.63	1476	2036
1876.33	1476	2036
1884.05	1476	2036
2116.71	1532	2084
2124.36	1532	2084
2132.02	1532	2084
1692.62	1580	1932
1700.42	1580	1932
1708.31	1580	1932
1524.85	1452	1948
1532.63	1452	1948
2052.75	1548	2060
2060.42	1548	2060
2068.23	1548	2060
1724.76	1452	2004
1732.53	1452	2004
1740.37	1452	2004
1748.28	1452	2004
1756	1452	2004
1764.52	1516	1988
1772.27	1516	1988
1884.73	1564	2004
1892.55	1564	2004
1900.09	1564	2004
2308.58	1532	2140
2316.31	1532	2140
2116.64	1516	2092
2124.5	1516	2092
2132.4	1516	2092
1756.55	1548	1972
1764.44	1548	1972
1772.19	1548	1972
2076.79	1468	2100
2084.49	1468	2100
2092.22	1468	2100
2100.05	1468	2100
2108	1468	2100
1740.73	1476	1996
1748.65	1476	1996
1756.31	1476	1996
1764.04	1476	1996
1524.81	1468	1940
1532.62	1468	1940
2308.17	1492	2156
2100.32	1452	2108
2308.9	1524	2148
2316.84	1524	2148
2324.64	1524	2148
2332.24	1524	2148
1884.72	1492	2036
1892.48	1492	2036
1900.22	1492	2036
1892.69	1500	2036
1900.6	1500	2036
1908.39	1500	2036
1940.76	1524	2036
1948.4	1524	2036
1956.42	1524	2036
2124.87	1508	2100
2132.7	1508	2100
2140.51	1508	2100
2148.41	1508	2100
1908.56	1508	2036
1916.49	1508	2036
1924.27	1508	2036
2052.07	1556	2052
2060.01	1556	2052
2132.72	1524	2092
2140.53	1524	2092
1828.63	1596	1964
1836.26	1596	1964
1700.73	1468	1988
1708.5	1468	1988
1716.31	1468	1988
1724.04	1468	1988
1900.68	1556	2012
1908.44	1556	2012
1916.15	1556	2012
1924.05	1556	2012
1868.86	1484	2036
1876.77	1484	2036
1884.45	1484	2036
1892.31	1484	2036
1684.62	1572	1940
1692.44	1572	1940
1700.25	1572	1940
2060.84	1460	2092
2068.34	1460	2092
1908.77	1540	2020
1916.41	1540	2020
1924.15	1540	2020
2100.88	1444	2116
2108.6	1444	2116
2116.49	1444	2116
2124.25	1444	2116
1916.78	1452	2060
1924.74	1452	2060
1932.59	1452	2060
1940.35	1452	2060
1948.04	1452	2060
2068.89	1564	2060
2076.75	1564	2060
2084.55	1564	2060
2092.05	1564	2060
1716.77	1564	1956
1724.54	1564	1956
1732.39	1564	1956
1772.69	1524	1988
1780.29	1524	1988
1764.69	1492	1996
1772.7	1492	1996
1780.26	1492	1996
2052.51	1540	2060
2060.13	1540	2060
2092.78	1484	2100
2100.71	1484	2100
2108.42	1484	2100
2116.1	1484	2100
1732.92	1540	1972
1740.87	1540	1972
1748.58	1540	1972
1756.26	1540	1972
1764.16	1540	1972
1724.74	1484	1988
1732.52	1484	1988
1740.44	1484	1988
1740.65	1556	1964
1748.48	1556	1964
1756.23	1556	1964
1932.59	1516	2036
1940.36	1516	2036
1948.15	1516	2036
1724.67	1508	1980
1732.36	1508	1980
1740.16	1508	1980
1924.63	1460	2060
1932.38	1460	2060
2116.87	1500	2100
2124.51	1500	2100
2132.49	1500	2100
2308.45	1500	2156
2316.2	1500	2156
1876.85	1468	2044
1884.53	1468	2044
1892.25	1468	2044
1940.92	1444	2060
1948.92	1444	2060
1956.93	1444	2060
1812.8	1580	1972
1820.64	1580	1972
1828.38	1580	1972
1836.16	1580	1972
2084.6	1492	2092
2092.36	1492	2092
2100.12	1492	2092
1788.97	1596	1956
2076.83	1476	2100
2084.66	1476	2100
2092.58	1476	2100
2100.32	1476	2100
2308.76	1516	2148
2316.61	1516	2148
2324.01	1516	2148
1860.77	1588	1980
1868.81	1588	1980
1876.52	1588	1980
1884.03	1588	1980
1980.72	1532	2044
1988.56	1532	2044
1996.24	1532	2044
1716.76	1500	1980
1724.52	1500	1980
1732.13	1500	1980
1884.86	1548	2012
1892.63	1548	2012
1900.55	1548	2012
1908.19	1548	2012
1788.7	1588	1956
1748.51	1444	2012
1756.53	1444	2012
1764.21	1444	2012
1772.11	1444	2012
2324.75	1532	2148
2332.77	1532	2148
2340.47	1532	2148
1908.81	1564	2012
1916.48	1564	2012
1924.27	1564	2012
2140.8	1516	2100
2148.71	1516	2100
2156.57	1516	2100
1716.67	1580	1940
1724.47	1580	1940
1732.3	1580	1940
1780.53	1460	2012
1788.24	1460	2012
1780.79	1548	1980
1788.44	1548	1980
2076.84	1548	2068
2084.64	1548	2068
2092.2	1548	2068
1892.73	1476	2044
1900.43	1476	2044
1908	1476	2044
2316.87	1492	2164
2324.83	1492	2164
2332.52	1492	2164
2340.45	1492	2164
2348.25	1492	2164
2156.82	1508	2108
2164.51	1508	2108
1772.53	1476	2004
1780.32	1476	2004
1788.05	1476	2004
1764.68	1452	2012
1772.58	1452	2012
1780.23	1452	2012
1788.14	1452	2012
1796.49	1572	1972
1804.24	1572	1972
1964.84	1524	2044
1972.61	1524	2044
1980.33	1524	2044
1988.03	1524	2044
2140.82	1532	2092
2148.33	1532	2092
1916.97	1500	2044
1924.89	1500	2044
1932.59	1500	2044
2068.54	1556	2060
2076.31	1556	2060
2116.71	1468	2108
2124.16	1468	2108
2108.87	1452	2116
2116.77	1452	2116
2124.58	1452	2116
2132.49	1452	2116
2140.05	1452	2116
1932.86	1508	2044
1940.71	1508	2044
1948.3	1508	2044
1956.27	1508	2044
1964	1508	2044
2100.77	1564	2068
2108.62	1564	2068
2116.4	1564	2068
1908.9	1492	2044
1916.68	1492	2044
1924.38	1492	2044
2340.71	1524	2156
2348.38	1524	2156
1780.81	1516	1996
1788.61	1516	1996
1932.64	1556	2020
1940.42	1556	2020
1948.08	1556	2020
2132.84	1444	2124
1844.93	1596	1972
1852.67	1596	1972
1860.56	1596	1972
1868.19	1596	1972
2076.74	1460	2100
2084.56	1460	2100
2092.26	1460	2100
2308.74	1452	2180
2316.71	1452	2180
2324.71	1452	2180
2332.23	1452	2180
1788.85	1524	1996
1732.59	1468	1996
1740.54	1468	1996
1748.34	1468	1996
1756.23	1468	1996
1956.7	1516	2044
1964.67	1516	2044
1972.42	1516	2044
1980.03	1516	2044
1708.87	1572	1948
1716.68	1572	1948
1724.47	1572	1948
1732.24	1572	1948
1900.77	1484	2044
1908.47	1484	2044
1916.18	1484	2044
1932.84	1540	2028
1940.46	1540	2028
1948.21	1540	2028
1956.09	1540	2028
1748.54	1508	1988
1756.28	1508	1988
1764.18	1508	1988
1956.92	1452	2068
1964.68	1452	2068
1972.49	1452	2068
1980.4	1452	2068
1988.25	1452	2068
1996.56	1452	2068
2004.33	1452	2068
1940.85	1460	2068
1948.75	1460	2068
1956.56	1460	2068
1964.38	1460	2068
1972.13	1460	2068
2148.92	1524	2100
2156.76	1524	2100
2164.58	1524	2100
2172.16	1524	2100
1788.64	1492	2004
2124.6	1484	2108
2132.29	1484	2108
1772.64	1540	1980
1780.55	1540	1980
1788.2	1540	1980
2308.11	1508	2148
1764.87	1556	1972
1772.58	1556	1972
1780.32	1556	1972
1748.82	1484	1996
1756.65	1484	1996
1764.35	1484	1996
1740.9	1564	1964
1748.74	1564	1964
1756.47	1564	1964
1764.19	1564	1964
2052.27	1588	2036
2060.04	1588	2036
2068.88	1540	2068
2076.6	1540	2068
2084.26	1540	2068
1964.93	1444	2068
1972.95	1444	2068
1980.69	1444	2068
1988.07	1444	2068
2012.1	1444	2068
2036.02	1444	2068
1740.71	1500	1988
1748.44	1500	1988
1756.29	1500	1988
2308.48	1476	2164
2316.42	1476	2164
1916.76	1548	2020
1924.48	1548	2020
1932.23	1548	2020
1844.53	1580	1980
1852.21	1580	1980
1780.74	1444	2020
1788.5	1444	2020
2108.69	1476	2108
2116.67	1476	2108
2124.49	1476	2108
2140.96	1500	2108
2148.65	1500	2108
2156.53	1500	2108
2164.13	1500	2108
2324.93	1500	2164
2332.79	1500	2164
2340.77	1500	2164
2348.4	1500	2164
2356.06	1500	2164
2108.66	1492	2100
2116.52	1492	2100
2124.37	1492	2100
1740.55	1580	1948
1748.36	1580	1948
1756.29	1580	1948
1900.8	1468	2052
1908.54	1468	2052
1916.49	1468	2052
1924.12	1468	2052
1916.68	1476	2052
1924.57	1476	2052
1932.19	1476	2052
1940.01	1476	2052
2004.78	1532	2052
2012.49	1532	2052
2020.28	1532	2052
2028	1532	2052
2348.85	1532	2156
2356.57	1532	2156
2364.1	1532	2156
2332.66	1516	2156
2340.1	1516	2156
2100.83	1548	2076
2108.67	1548	2076
2116.38	1548	2076
2124.13	1548	2076
2308.5	1444	2180
2316.08	1444	2180
2308.38	1468	2164
2316.19	1468	2164
1892.7	1588	1988
1900.47	1588	1988
1908.1	1588	1988
1932.9	1564	2020
1940.74	1564	2020
1948.41	1564	2020
1956.13	1564	2020
2156.93	1532	2100
2164.63	1532	2100
2172.38	1532	2100
1812.79	1572	1980
1820.66	1572	1980
1828.38	1572	1980
1836.17	1572	1980
2164.94	1516	2108
2172.59	1516	2108
2180.12	1516	2108
2148.55	1452	2124
2308.37	1564	2124
2308.45	1548	2132
2316.18	1548	2132
1940.87	1500	2052
1948.72	1500	2052
1956.69	1500	2052
1964.51	1500	2052
1972.25	1500	2052
2356.77	1492	2172
2364.3	1492	2172
2084.92	1556	2068
2092.77	1556	2068
2100.47	1556	2068
2108.01	1556	2068
2100.69	1460	2108
2108.43	1460	2108
2116.04	1460	2108
2340.66	1452	2188
2308.42	1460	2172
2172.98	1508	2116
2180.89	1508	2116
2188.65	1508	2116
2196.57	1508	2116
2204.01	1508	2116
2132.84	1468	2116
2140.85	1468	2116
2148.67	1468	2116
2156.59	1468	2116
2164.28	1468	2116
1996.71	1524	2052
2004.51	1524	2052
2012.32	1524	2052
2356.91	1524	2164
2364.88	1524	2164
2372.68	1524	2164
2380.28	1524	2164
2140.93	1444	2132
2148.89	1444	2132
2156.66	1444	2132
2164.49	1444	2132
2172.35	1444	2132
2052.78	1580	2044
2060.43	1580	2044
2068.35	1580	2044
2308.72	1484	2164
2316.49	1484	2164
2324.38	1484	2164
1932.73	1492	2052
1940.62	1492	2052
1948.49	1492	2052
1956.41	1492	2052
1964.12	1492	2052
1764.74	1468	2004
1772.36	1468	2004
1780.16	1468	2004
2124.96	1564	2076
2132.74	1564	2076
2140.49	1564	2076
2148.31	1564	2076
1876.83	1596	1980
1884.52	1596	1980
1892.31	1596	1980
1964.63	1540	2036
1972.44	1540	2036
1924.82	1484	2052
1932.41	1484	2052
1940.2	1484	2052
1948.21	1484	2052
1972.67	1508	2052
1980.38	1508	2052
1988.36	1508	2052
1996.35	1508	2052
1988.69	1516	2052
1996.5	1516	2052
2004	1516	2052
2140.91	1484	2116
2148.69	1484	2116
2156.66	1484	2116
2164.32	1484	2116
2180.71	1524	2108
2188.32	1524	2108
1956.65	1556	2028
1964.6	1556	2028
1972.36	1556	2028
2316.72	1508	2156
2324.29	1508	2156
1772.82	1508	1996
1780.57	1508	1996
1788.46	1508	1996
1764.83	1500	1996
1772.68	1500	1996
1780.53	1500	1996
1740.72	1572	1956
1748.51	1572	1956
1756.25	1572	1956
2012.83	1452	2076
2020.71	1452	2076
2028.53	1452	2076
2036.14	1452	2076
2092.78	1540	2076
2100.67	1540	2076
2108.31	1540	2076
1980.67	1460	2076
1988.57	1460	2076
1996.39	1460	2076
2004.08	1460	2076
1772.89	1484	2004
1780.6	1484	2004
1788.42	1484	2004
1940.81	1548	2028
1948.71	1548	2028
1956.47	1548	2028
1964.09	1548	2028
2324.64	1476	2172
1996.96	1444	2076
2004.85	1444	2076
2020.41	1444	2076
2044.29	1444	2076
1788.76	1556	1980
1772.76	1564	1972
1780.57	1564	1972
1788.28	1564	1972
2348.87	1516	2164
2356.76	1516	2164
2364.69	1516	2164
2372.28	1516	2164
2132.94	1476	2116
2140.82	1476	2116
2148.7	1476	2116
2156.54	1476	2116
2164.46	1476	2116
2172.14	1476	2116
2132.71	1492	2108
2140.55	1492	2108
2148.44	1492	2108
2372.95	1532	2164
2380.65	1532	2164
2388.52	1532	2164
2396.18	1532	2164
2172.75	1500	2116
2180.54	1500	2116
2188.41	1500	2116
2364.86	1500	2172
2372.35	1500	2172
2380.05	1500	2172
2324.6	1444	2188
2332.05	1444	2188
1860.73	1580	1988
1868.66	1580	1988
1876.44	1580	1988
1764.65	1580	1956
1772.51	1580	1956
1780.33	1580	1956
2036.64	1532	2060
2044.47	1532	2060
2324.39	1468	2172
2052.23	1572	2044
2308.03	1540	2132
2068.76	1588	2044
2076.58	1588	2044
2084.17	1588	2044
2132.79	1548	2084
2140.34	1548	2084
2148.12	1548	2084
1964.79	1564	2028
1972.52	1564	2028
1980.28	1564	2028
2180.91	1532	2108
2188.65	1532	2108
2196.48	1532	2108
1932.67	1468	2060
1940.39	1468	2060
2388.74	1524	2172
2396.51	1524	2172
2404.05	1524	2172
1948.67	1476	2060
1956.41	1476	2060
2156.88	1452	2132
2164.62	1452	2132
2172.53	1452	2132
2180.29	1452	2132
2188.3	1452	2132
2124.76	1460	2116
2132.71	1460	2116
2140.57	1460	2116
2188.91	1516	2116
2196.68	1516	2116
2204.61	1516	2116
2212.23	1516	2116
2316.94	1564	2132
2324.85	1564	2132
2332.59	1564	2132
2340.4	1564	2132
2156.92	1564	2084
2164.54	1564	2084
2172.39	1564	2084
2180.24	1564	2084
1916.55	1588	1996
1924.38	1588	1996
2316.74	1460	2180
2324.74	1460	2180
2332.74	1460	2180
2340.08	1460	2180
2172.48	1468	2124
2180.12	1468	2124
2332.73	1484	2172
2340.17	1484	2172
2212.48	1508	2124
2372.89	1492	2180
2380.57	1492	2180
2388.02	1492	2180
2396.4	1492	2180
2404.25	1492	2180
1980.53	1500	2060
1988.46	1500	2060
1996.41	1500	2060
2004.41	1500	2060
2012.11	1500	2060
1844.63	1572	1988
1852.33	1572	1988
1860.06	1572	1988
1788.62	1468	2012
2564.98	1516	2220
2572.48	1516	2220
2020.81	1524	2060
2028.58	1524	2060
2036.21	1524	2060
2076.76	1580	2052
2084.67	1580	2052
2092.54	1580	2052
2100.01	1580	2052
2116.76	1556	2076
2124.49	1556	2076
2132.33	1556	2076
1972.54	1492	2060
1980.17	1492	2060
2348.81	1452	2196
2356.64	1452	2196
2364.6	1452	2196
2372.5	1452	2196
2564.76	1524	2220
2572.57	1524	2220
2580.39	1524	2220
2588.02	1524	2220
1972.77	1548	2036
1980.64	1548	2036
1988.12	1548	2036
1900.82	1596	1988
1908.65	1596	1988
1916.36	1596	1988
1924.03	1596	1988
2172.94	1484	2124
2180.86	1484	2124
2188.56	1484	2124
2196.08	1484	2124
2324.83	1548	2140
2332.55	1548	2140
2340.25	1548	2140
2180.66	1444	2140
2188.32	1444	2140
1980.59	1556	2036
1988.49	1556	2036
1996.24	1556	2036
2004.77	1508	2060
2012.41	1508	2060
2020.03	1508	2060
2196.98	1524	2116
2204.83	1524	2116
2212.57	1524	2116
2220.26	1524	2116
2012.71	1516	2060
2020.49	1516	2060
2028.24	1516	2060
1956.79	1484	2060
1964.56	1484	2060
1972.04	1484	2060
1980.93	1540	2044
1988.8	1540	2044
1996.5	1540	2044
2004.34	1540	2044
1788.8	1500	2004
2333	1508	2164
2340.89	1508	2164
2348.63	1508	2164
2356.42	1508	2164
2364.11	1508	2164
2564.41	1532	2212
2116.79	1540	2084
2124.66	1540	2084
2132.44	1540	2084
2043.95	1444	2084
2308.06	1556	2124
1764.82	1572	1964
1772.63	1572	1964
1780.3	1572	1964
2012.77	1460	2084
2020.97	1460	2084
2028.74	1460	2084
2036.44	1460	2084
2180.81	1476	2124
2188.62	1476	2124
2196.23	1476	2124
2380.71	1516	2172
2388.42	1516	2172
2156.96	1492	2116
2164.69	1492	2116
2172.62	1492	2116
2180.43	1492	2116
2052.04	1596	2028
2333	1476	2180
2340.79	1476	2180
2348.74	1476	2180
2356.44	1476	2180
2364.15	1476	2180
2092.83	1588	2052
2100.66	1588	2052
2108.43	1588	2052
2044.21	1452	2092
2196.76	1500	2124
2204.57	1500	2124
2404.69	1532	2172
2412.58	1532	2172
2316.55	1540	2140
2324.28	1540	2140
2332.12	1540	2140
2332.8	1468	2180
2340.71	1468	2180
2348.08	1468	2180
2356.05	1468	2180
2388.4	1500	2180
2396.79	1500	2180
2404.75	1500	2180
2412.67	1500	2180
2420.06	1500	2180
2156.7	1548	2092
2164.62	1548	2092
2172.03	1548	2092
2180.03	1548	2092
2340.77	1444	2196
2348.66	1444	2196
2356.41	1444	2196
2364.08	1444	2196
1932.77	1588	2004
1940.48	1588	2004
1948.4	1588	2004
1956.17	1588	2004
1948.75	1468	2068
1956.64	1468	2068
1964.48	1468	2068
1972.36	1468	2068
1964.73	1476	2068
1972.63	1476	2068
1980.44	1476	2068
1988.15	1476	2068
2060.85	1572	2052
2068.56	1572	2052
2076.34	1572	2052
2196.49	1452	2140
2204.91	1532	2116
2212.73	1532	2116
2220.58	1532	2116
2228.46	1532	2116
2220.65	1516	2124
2228.32	1516	2124
1884.83	1580	1996
1892.74	1580	1996
1900.6	1580	1996
1908.06	1580	1996
2108.73	1580	2060
2116.5	1580	2060
2564	1548	2204
1988.71	1564	2036
1996.64	1564	2036
2004.43	1564	2036
2012.18	1564	2036
2148.81	1460	2124
2156.45	1460	2124
2164.32	1460	2124
2348.84	1484	2180
2356.74	1484	2180
2364.74	1484	2180
2372.4	1484	2180
2380.1	1484	2180
2348.81	1460	2188
2356.3	1460	2188
2412.93	1524	2180
2420.82	1524	2180
2428.69	1524	2180
2436.47	1524	2180
2444.1	1524	2180
2020.64	1500	2068
2028.46	1500	2068
2036.34	1500	2068
2044.11	1500	2068
2140.88	1556	2084
2148.74	1556	2084
2156.49	1556	2084
2164.24	1556	2084
2220.96	1508	2132
2228.89	1508	2132
2236.59	1508	2132
2244.4	1508	2132
2564.81	1492	2228
2572.25	1492	2228
1788.81	1580	1964
2412.79	1492	2188
2420.4	1492	2188
2428.12	1492	2188
2348.88	1548	2148
2356.73	1548	2148
2364.51	1548	2148
2372.2	1548	2148
2188.87	1468	2132
2196.84	1468	2132
2204.69	1468	2132
2212.03	1468	2132
2348.83	1564	2140
2356.36	1564	2140
2364.3	1564	2140
2372.11	1564	2140
2188.75	1564	2092
2196.66	1564	2092
2204.17	1564	2092
2212.07	1564	2092
2044.78	1524	2068
2380.98	1452	2204
2388.86	1452	2204
2396.57	1452	2204
2404.67	1452	2204
2412.15	1452	2204
1932.48	1596	1996
1940.09	1596	1996
1868.82	1572	1996
1876.6	1572	1996
1884.32	1572	1996
2564.01	1460	2244
2196.84	1444	2148
2204.83	1444	2148
2212.54	1444	2148
2220.55	1444	2148
2228.48	1444	2148
1988.75	1492	2068
1996.64	1492	2068
2004.65	1492	2068
2012.5	1492	2068
2020.36	1492	2068
2028.09	1492	2068
2580.97	1516	2228
2588.81	1516	2228
2596.71	1516	2228
2604.65	1516	2228
2612.15	1516	2228
2596.59	1524	2228
2228.72	1524	2124
2236.45	1524	2124
1996.7	1548	2044
2004.57	1548	2044
2012.44	1548	2044
2004.85	1556	2044
2012.55	1556	2044
2020.28	1556	2044
2028.63	1508	2068
2036.55	1508	2068
2044.17	1508	2068
2140.96	1540	2092
2148.6	1540	2092
2156.19	1540	2092
2164.12	1540	2092
2396.94	1516	2180
2404.79	1516	2180
2412.49	1516	2180
2420.49	1516	2180
2428.23	1516	2180
2372.72	1508	2172
2380.02	1508	2172
2204.65	1484	2132
2212.47	1484	2132
2220.25	1484	2132
1980.69	1484	2068
1988.6	1484	2068
1996.32	1484	2068
2004.24	1484	2068
2012.07	1484	2068
2012.89	1540	2052
2020.77	1540	2052
2028.5	1540	2052
2036.08	1540	2052
2044.47	1444	2092
2036.66	1516	2068
2044.5	1516	2068
2572.84	1532	2220
2580.76	1532	2220
2316.66	1556	2132
2324.49	1556	2132
2332.08	1556	2132
2188.79	1492	2124
2196.17	1492	2124
2204.85	1476	2132
2212.56	1476	2132
2220.17	1476	2132
2044.89	1460	2092
2308.49	1580	2116
2316.32	1580	2116
1788.81	1572	1972
2564.65	1452	2252
2572.72	1452	2252
2580.51	1452	2252
2188.61	1548	2100
2196.46	1548	2100
2204.24	1548	2100
2060.74	1596	2036
2068.51	1596	2036
2076.25	1596	2036
2212.98	1500	2132
2220.81	1500	2132
2228.77	1500	2132
2236.43	1500	2132
2428.32	1500	2188
2564.51	1444	2252
2572.53	1444	2252
2580.13	1444	2252
2116.92	1588	2060
2124.61	1588	2060
2132.34	1588	2060
1980.86	1468	2076
1988.76	1468	2076
1996.5	1468	2076
2084.94	1572	2060
2092.7	1572	2060
2100.5	1572	2060
2108.17	1572	2060
2420.98	1532	2180
2428.89	1532	2180
2436.77	1532	2180
2444.38	1532	2180
2452.03	1532	2180
2460.01	1532	2180
1996.86	1476	2076
2004.59	1476	2076
2012.05	1476	2076
2028.21	1476	2076
2340.71	1540	2148
2348.71	1540	2148
2356.28	1540	2148
2372.84	1476	2188
2380.61	1476	2188
2388.11	1476	2188
2396.52	1476	2188
2564.3	1468	2244
2372.86	1444	2204
2380.85	1444	2204
2364.6	1468	2188
2372.26	1468	2188
2204.83	1452	2148
2212.84	1452	2148
2220.59	1452	2148
2228.55	1452	2148
2236.39	1452	2148
2236.96	1516	2132
2244.64	1516	2132
2252.48	1516	2132
2572.68	1548	2212
2580.4	1548	2212
2588.12	1548	2212
2564.43	1508	2220
1916.68	1580	2004
1924.48	1580	2004
1932.21	1580	2004
1940.03	1580	2004
2364.78	1460	2196
2372.71	1460	2196
2380.53	1460	2196
2396.38	1460	2196
2404.58	1460	2196
2172.85	1460	2132
2180.64	1460	2132
2188.56	1460	2132
2196.52	1460	2132
2172.72	1556	2092
2180.61	1556	2092
2580.88	1492	2236
2588.27	1492	2236
2452.79	1524	2188
2460.25	1524	2188
2252.83	1508	2140
2260.54	1508	2140
2268.23	1508	2140
2236.87	1532	2124
2244.73	1532	2124
2252.14	1532	2124
2380.71	1548	2156
2388.31	1548	2156
2020.77	1564	2044
2028.61	1564	2044
2036.33	1564	2044
1964.77	1588	2012
1972.51	1588	2012
1980.26	1588	2012
2308.91	1572	2124
2316.84	1572	2124
2324.31	1572	2124
2332.1	1572	2124
2124.98	1580	2068
2132.85	1580	2068
2140.54	1580	2068
2148.37	1580	2068
2436.77	1492	2196
2444.71	1492	2196
2452.84	1492	2196
2460.6	1492	2196
2220.77	1468	2140
2228.43	1468	2140
2388.74	1484	2188
2396.74	1484	2188
2404.7	1484	2188
2564.59	1540	2212
2572.31	1540	2212
2420.81	1452	2212
2428.8	1452	2212
2436.18	1452	2212
2444.14	1452	2212
2452.2	1452	2212
2380.77	1564	2148
2388.62	1564	2148
2396.44	1564	2148
2220.64	1564	2100
2228.51	1564	2100
2036.75	1492	2076
2044.21	1492	2076
2564.95	1564	2204
2572.73	1564	2204
2580.33	1564	2204
1892.8	1572	2004
1900.63	1572	2004
1908.39	1572	2004
1916.23	1572	2004
2604.99	1524	2236
2612.97	1524	2236
2620.89	1524	2236
2628.75	1524	2236
2636.72	1524	2236
2644.62	1524	2236
2388.91	1508	2180
2396.79	1508	2180
2404.38	1508	2180
2412.31	1508	2180
2420.09	1508	2180
2244.91	1524	2132
2252.91	1524	2132
2260.61	1524	2132
2268.36	1524	2132
2276.08	1524	2132
2620.87	1516	2236
2628.89	1516	2236
2636.41	1516	2236
2028.84	1556	2052
2036.8	1556	2052
2044.43	1556	2052
2172.66	1540	2100
2180.35	1540	2100
2188.23	1540	2100
2196.02	1540	2100
2044.78	1540	2060
2228.74	1476	2140
2236.45	1476	2140
2020.83	1548	2052
2028.58	1548	2052
2036.39	1548	2052
2044	1548	2052
2228.86	1484	2140
2236.52	1484	2140
2244.43	1484	2140
2252.35	1484	2140
2020.53	1484	2076
2028.53	1484	2076
2036.22	1484	2076
2572.83	1460	2252
2580.49	1460	2252
2588.21	1460	2252
2596.32	1460	2252
2604.23	1460	2252
2236.7	1444	2156
2340.81	1556	2140
2348.55	1556	2140
1948.94	1596	2004
1956.51	1596	2004
1964.44	1596	2004
2436.82	1516	2188
2444.54	1516	2188
2452.16	1516	2188
2564.91	1500	2228
2572.69	1500	2228
2580.1	1500	2228
2204.95	1492	2132
2212.75	1492	2132
2220.39	1492	2132
2228.3	1492	2132
2588.93	1532	2228
2596.86	1532	2228
2604.31	1532	2228
2084.78	1596	2044
2092.62	1596	2044
2100.46	1596	2044
2404.93	1476	2196
2412.91	1476	2196
2420.59	1476	2196
2428.38	1476	2196
2572.9	1468	2252
2580.88	1468	2252
2588.47	1468	2252
2596.43	1468	2252
2604.12	1468	2252
2380.63	1468	2196
2388.49	1468	2196
2396.57	1468	2196
2404.6	1468	2196
2412.34	1468	2196
2388.83	1444	2212
2396.49	1444	2212
2404.76	1444	2212
2412.66	1444	2212
2420.2	1444	2212
2428.14	1444	2212
2564.33	1476	2236
2588.8	1452	2260
2596.66	1452	2260
2604.2	1452	2260
2436.94	1500	2196
2444.97	1500	2196
2452.83	1500	2196
2460.62	1500	2196
2468.17	1500	2196
2476.21	1500	2196
2244.88	1500	2140
2252.48	1500	2140
2116.87	1572	2068
2124.59	1572	2068
2132.51	1572	2068
2140.01	1572	2068
2244.55	1452	2156
2252.45	1452	2156
2004.82	1468	2084
2012.5	1468	2084
2020.44	1468	2084
2028.53	1468	2084
2036.47	1468	2084
2044.17	1468	2084
2020.81	1476	2084
2036.8	1476	2084
2044.46	1476	2084
2468.58	1532	2188
2476.46	1532	2188
2484.16	1532	2188
2260.91	1516	2140
2268.69	1516	2140
2276.35	1516	2140
2140.91	1588	2068
2148.76	1588	2068
2156.66	1588	2068
2324.77	1580	2124
2332.62	1580	2124
2340.28	1580	2124
2212.79	1548	2108
2220.59	1548	2108
2228.14	1548	2108
2364.8	1540	2156
2372.72	1540	2156
2380.06	1540	2156
2588.15	1444	2260
2572.73	1508	2228
2580.73	1508	2228
2588.51	1508	2228
2596.29	1508	2228
1948.55	1580	2012
1956.39	1580	2012
2596.88	1492	2244
2604.52	1492	2244
2612.05	1492	2244
2044.78	1564	2052
2260.92	1532	2132
2268.81	1532	2132
2276.64	1532	2132
2284.64	1532	2132
2292.02	1532	2132
2468.68	1492	2204
2476.18	1492	2204
2204.62	1460	2140
2212.31	1460	2140
2220.18	1460	2140
2468.84	1524	2196
2476.8	1524	2196
2484.82	1524	2196
2492.44	1524	2196
2500.09	1524	2196
2564.22	1484	2228
2596.85	1548	2220
2604.4	1548	2220
2188.87	1556	2100
2196.8	1556	2100
2204.66	1556	2100
2212.41	1556	2100
2220.23	1556	2100
2388.87	1460	2204
2412.75	1460	2204
2420.33	1460	2204
2396.95	1548	2164
2404.81	1548	2164
2412.61	1548	2164
2420.51	1548	2164
2428.01	1548	2164
2404.94	1564	2156
2412.86	1564	2156
2420.63	1564	2156
2428.04	1564	2156
2236.97	1564	2108
2244.83	1564	2108
2252.63	1564	2108
2260.31	1564	2108
1988.72	1588	2020
1996.54	1588	2020
2004.24	1588	2020
2236.85	1468	2148
2244.6	1468	2148
2252.45	1468	2148
2260.31	1468	2148
2412.95	1484	2196
2420.89	1484	2196
2428.78	1484	2196
2436.58	1484	2196
2444.35	1484	2196
2580.94	1540	2220
2588.77	1540	2220
2596.3	1540	2220
2604.01	1540	2220
2588.71	1564	2212
2596.51	1564	2212
2276.76	1508	2148
2284.6	1508	2148
2292.54	1508	2148
2300.53	1508	2148
2204.54	1540	2108
2212.27	1540	2108
2340.71	1572	2132
2348.62	1572	2132
2356.18	1572	2132
2460.6	1452	2220
2652.61	1524	2244
2644.8	1516	2244
2156.85	1580	2076
2164.71	1580	2076
2172.24	1580	2076
2244.78	1444	2164
2252.78	1444	2164
2260.51	1444	2164
2268.37	1444	2164
2612.87	1460	2260
2620.42	1460	2260
2284.65	1524	2140
2292.35	1524	2140
2300.39	1524	2140
1924.63	1572	2012
1932.43	1572	2012
1940.2	1572	2012
2564.82	1556	2204
2356.94	1556	2148
2364.73	1556	2148
2372.47	1556	2148
2380.15	1556	2148
2460.76	1516	2196
2468.64	1516	2196
2476.19	1516	2196
2484.08	1516	2196
2428.84	1508	2188
2436.71	1508	2188
2444.18	1508	2188
2612.94	1532	2236
2620.81	1532	2236
2628.23	1532	2236
2636.07	1532	2236
2244.7	1476	2148
2252.5	1476	2148
2260.4	1476	2148
2268.06	1476	2148
2044.79	1484	2084
2260.78	1500	2148
2268.73	1500	2148
2276.58	1500	2148
2284.3	1500	2148
1972.94	1596	2012
1980.8	1596	2012
1988.69	1596	2012
1996.17	1596	2012
2236.67	1492	2140
2244.39	1492	2140
2252.05	1492	2140
2588.73	1500	2236
2596.28	1500	2236
2604.28	1500	2236
2484.42	1500	2204
2492.37	1500	2204
2500.3	1500	2204
2260.78	1484	2148
2268.51	1484	2148
2276.39	1484	2148
2284.06	1484	2148
2260.79	1452	2164
2268.74	1452	2164
2276.31	1452	2164
2284.15	1452	2164
2572.83	1476	2244
2580.38	1476	2244
2588.44	1476	2244
2596.29	1476	2244
2436.78	1476	2204
2444.17	1476	2204
2420.91	1468	2204
2428.65	1468	2204
2108.84	1596	2052
2116.59	1596	2052
2124.22	1596	2052
2436.63	1444	2220
2444.29	1444	2220
2612.9	1452	2268
2620.56	1452	2268
2628.38	1452	2268
2388.77	1540	2164
2396.66	1540	2164
2404.46	1540	2164
2164.91	1588	2076
2172.91	1588	2076
2180.61	1588	2076
2188.45	1588	2076
2612.86	1468	2260
2620.29	1468	2260
2628.1	1468	2260
2284.88	1516	2148
2292.84	1516	2148
2300.83	1516	2148
2492.74	1532	2196
2500.24	1532	2196
2596.59	1444	2268
2604.6	1444	2268
2612.26	1444	2268
2604.84	1508	2236
2612.25	1508	2236
2620.03	1508	2236
2348.94	1580	2132
2356.71	1580	2132
2364.26	1580	2132
2300.7	1532	2140
2236.83	1548	2116
2244.78	1548	2116
2252.68	1548	2116
2260.45	1548	2116
2268.2	1548	2116
2148.79	1572	2076
2156.36	1572	2076
2164.12	1572	2076
2308.1	1596	2108
1964.81	1580	2020
1972.68	1580	2020
1980.53	1580	2020
1988.35	1580	2020
2572.63	1484	2236
2612.96	1548	2228
2620.52	1548	2228
2628.1	1548	2228
2436.88	1564	2164
2444.63	1564	2164
2452.22	1564	2164
2452.94	1484	2204
2460.37	1484	2204
2428.9	1460	2212
2436.81	1460	2212
2444.34	1460	2212
2452.34	1460	2212
2460.17	1460	2212
2620.92	1492	2252
2628.83	1492	2252
2636.47	1492	2252
2644.26	1492	2252
2652	1492	2252
2484.94	1492	2212
2492.83	1492	2212
2500.58	1492	2212
2508.08	1492	2212
2228.85	1556	2108
2236.66	1556	2108
2244.35	1556	2108
2252.03	1556	2108
2308.84	1588	2116
2316.71	1588	2116
2324.38	1588	2116
2268.83	1564	2116
2276.67	1564	2116
2284.25	1564	2116
2660.89	1524	2252
2668.47	1524	2252
2676.24	1524	2252
2012.79	1588	2028
2020.68	1588	2028
2028.43	1588	2028
2268.43	1468	2156
2276.13	1468	2156
2220.87	1540	2116
2228.61	1540	2116
2236.41	1540	2116
2244.3	1540	2116
2252.01	1540	2116
2436.66	1548	2172
2444.53	1548	2172
2452.01	1548	2172
2652.85	1516	2252
2660.53	1516	2252
2668.14	1516	2252
2604.93	1564	2220
2612.63	1564	2220
2620.47	1564	2220
2508.77	1524	2204
2516.69	1524	2204
2524.46	1524	2204
2468.85	1452	2228
2476.75	1452	2228
2484.5	1452	2228
2492.2	1452	2228
2364.81	1572	2140
2372.72	1572	2140
2380.52	1572	2140
2388.12	1572	2140
2612.59	1540	2228
2276.81	1444	2172
2284.46	1444	2172
2292.03	1444	2172
2628.7	1460	2268
2228.82	1460	2148
2236.56	1460	2148
2244.36	1460	2148
2180.9	1580	2084
2188.74	1580	2084
2196.57	1580	2084
2204.1	1580	2084
2452.99	1508	2196
2460.99	1508	2196
2468.78	1508	2196
2476.69	1508	2196
2484.67	1508	2196
2492.66	1508	2196
1948.86	1572	2020
1956.58	1572	2020
1964.34	1572	2020
1972.13	1572	2020
2644.86	1532	2244
2652.66	1532	2244
2388.87	1556	2156
2396.52	1556	2156
2404.38	1556	2156
2412.22	1556	2156
2004.88	1596	2020
2012.68	1596	2020
2020.47	1596	2020
2492.92	1516	2204
2500.84	1516	2204
2508.53	1516	2204
2516.14	1516	2204
2572.95	1556	2212
2580.84	1556	2212
2588.37	1556	2212
2596.14	1556	2212
2292.74	1452	2172
2300.32	1452	2172
2260.87	1492	2148
2268.62	1492	2148
2276.35	1492	2148
2612.75	1500	2244
2620.27	1500	2244
2628.06	1500	2244
2292.83	1500	2156
2300.6	1500	2156
2452.81	1444	2228
2460.65	1444	2228
2468.63	1444	2228
2476.33	1444	2228
2604.46	1476	2252
2612.18	1476	2252
2276.67	1476	2156
2132.88	1596	2060
2140.61	1596	2060
2148.37	1596	2060
2156.03	1596	2060
2636.82	1452	2276
2644.53	1452	2276
2196.94	1588	2084
2204.75	1588	2084
2212.49	1588	2084
2220.03	1588	2084
2292.53	1484	2156
2508.76	1500	2212
2516.46	1500	2212
2524.35	1500	2212
2620.85	1444	2276
2628.84	1444	2276
2636.41	1444	2276
2452.88	1476	2212
2460.79	1476	2212
2468.78	1476	2212
2476.45	1476	2212
2484.03	1476	2212
2436.97	1468	2212
2444.8	1468	2212
2452.68	1468	2212
2460.2	1468	2212
2468.26	1468	2212
2372.91	1580	2140
2380.84	1580	2140
2388.52	1580	2140
2396.08	1580	2140
2412.86	1540	2172
2420.55	1540	2172
2428.3	1540	2172
2508.99	1532	2204
2516.98	1532	2204
2524.76	1532	2204
2532.28	1532	2204
2628.73	1508	2244
2636.23	1508	2244
2172.84	1572	2084
2180.42	1572	2084
2188.46	1572	2084
2820.11	1444	2332
2332.83	1588	2124
2340.77	1588	2124
2348.34	1588	2124
2292.87	1564	2124
2300.76	1564	2124
2500.85	1452	2236
2508.11	1452	2236
2516.15	1452	2236
2524.41	1452	2236
2276.68	1548	2124
2284.25	1548	2124
2636.67	1468	2268
2644.59	1468	2268
2652.25	1468	2268
2468.83	1460	2220
2476.12	1460	2220
1996.74	1580	2028
2004.61	1580	2028
2012.37	1580	2028
2020.2	1580	2028
2316.84	1596	2116
2324.55	1596	2116
2332.01	1596	2116
2660.72	1492	2260
2636.9	1548	2236
2644.84	1548	2236
2652.18	1548	2236
2580.99	1484	2244
2588.88	1484	2244
2596.49	1484	2244
2460.71	1564	2172
2468.33	1564	2172
2476.02	1564	2172
2516.89	1492	2220
2524.99	1492	2220
2532.88	1492	2220
2540.33	1492	2220
2036.88	1588	2036
2044.68	1588	2036
2260.85	1556	2116
2268.5	1556	2116
2276.42	1556	2116
2468.91	1484	2212
2476.77	1484	2212
2484.8	1484	2212
2492.49	1484	2212
2820.85	1452	2332
2828.52	1452	2332
2684.75	1524	2260
2692.04	1524	2260
2565	1572	2204
2572.94	1572	2204
2580.84	1572	2204
2588.35	1572	2204
2212.78	1580	2092
2220.64	1580	2092
2228.4	1580	2092
2252.92	1460	2156
2260.24	1460	2156
2396.64	1572	2148
2404.41	1572	2148
2412.13	1572	2148
2260.49	1540	2124
2268.26	1540	2124
2276.05	1540	2124
2284.8	1468	2164
2292.54	1468	2164
2300.38	1468	2164
2676.86	1516	2260
2628.86	1564	2228
2636.46	1564	2228
2532.88	1524	2212
2540.71	1524	2212
2548.21	1524	2212
2460.73	1548	2180
2468.62	1548	2180
2476.45	1548	2180
2484.18	1548	2180
2620.87	1540	2236
2628.81	1540	2236
2636.65	1540	2236
2644.52	1540	2236
2300.79	1444	2180
2028.82	1596	2028
2036.64	1596	2028
2044.33	1596	2028
2500.95	1508	2204
2508.45	1508	2204
2516.26	1508	2204
2524.07	1508	2204
2420.81	1556	2164
2428.45	1556	2164
2436.34	1556	2164
2444.2	1556	2164
1980.78	1572	2028
1988.59	1572	2028
1996.29	1572	2028
2604.8	1556	2220
2612.43	1556	2220
2636.83	1460	2276
2644.64	1460	2276
2652.83	1460	2276
2660.69	1460	2276
2668.85	1460	2276
2524.94	1516	2212
2532.89	1516	2212
2540.63	1516	2212
2548.53	1516	2212
2556.4	1516	2212
2636.93	1500	2252
2644.63	1500	2252
2652.54	1500	2252
2228.82	1588	2092
2236.68	1588	2092
2244.22	1588	2092
2660.97	1532	2252
2668.97	1532	2252
2676.82	1532	2252
2684.24	1532	2252
2652.95	1452	2284
2660.94	1452	2284
2668.88	1452	2284
2676.59	1452	2284
2620.82	1476	2260
2628.81	1476	2260
2636.49	1476	2260
2532.88	1500	2220
2540.64	1500	2220
2164.73	1596	2068
2172.47	1596	2068
2180.12	1596	2068
2564.8	1596	2196
2572.63	1596	2196
2580.19	1596	2196
2284.99	1492	2156
2292.86	1492	2156
2300.76	1492	2156
2484.73	1444	2236
2492.6	1444	2236
2500.3	1444	2236
2668.75	1492	2268
2676.64	1492	2268
2404.87	1580	2148
2412.77	1580	2148
2420.4	1580	2148
2284.93	1476	2164
2292.81	1476	2164
2300.76	1476	2164
2300.82	1484	2164
2196.87	1572	2092
2204.77	1572	2092
2212.52	1572	2092
2644.87	1508	2252
2652.71	1508	2252
2660.5	1508	2252
2668.08	1508	2252
2564.45	1588	2196
2572.52	1588	2196
2436.93	1540	2180
2444.92	1540	2180
2452.76	1540	2180
2460.57	1540	2180
2468.41	1540	2180
2644.92	1444	2284
2652.78	1444	2284
2660.53	1444	2284
2668.37	1444	2284
2356.92	1588	2132
2364.8	1588	2132
2372.58	1588	2132
2380.1	1588	2132
2028.64	1580	2036
2036.62	1580	2036
2044.15	1580	2036
2660.54	1548	2244
2540.9	1532	2212
2548.73	1532	2212
2556.57	1532	2212
2828.28	1444	2340
2292.88	1548	2132
2300.84	1548	2132
2476.95	1468	2220
2484.57	1468	2220
2492.63	1476	2220
2500.46	1476	2220
2508.08	1476	2220
2548.71	1492	2228
2556.77	1492	2228
2596.68	1572	2212
2604.42	1572	2212
2532.88	1452	2244
2484.75	1460	2228
2492.64	1460	2228
2500.35	1460	2228
2508.32	1460	2228
2340.72	1596	2124
2348.54	1596	2124
2356.23	1596	2124
2364.02	1596	2124
2604.97	1484	2252
2612.84	1484	2252
2620.47	1484	2252
2628.43	1484	2252
2236.92	1580	2100
2244.75	1580	2100
2252.41	1580	2100
2260.17	1580	2100
2420.95	1572	2156
2428.65	1572	2156
2436.38	1572	2156
2444.06	1572	2156
2284.96	1540	2132
2292.87	1540	2132
2300.47	1540	2132
2500.99	1484	2220
2508.69	1484	2220
2284.73	1556	2124
2292.55	1556	2124
2300.28	1556	2124
2484.81	1564	2180
2492.64	1564	2180
2500.59	1564	2180
2508.21	1564	2180
2820.93	1460	2348
2828.8	1460	2348
2836.53	1460	2348
2844.24	1460	2348
2876.52	1460	2348
2884.37	1460	2348
2660.77	1468	2276
2668.87	1468	2276
2676.59	1468	2276
2004.87	1572	2036
2012.61	1572	2036
2020.37	1572	2036
2028.24	1572	2036
2268.79	1460	2164
2276.8	1460	2164
2284.75	1460	2164
2292.38	1460	2164
2492.83	1548	2188
2500.48	1548	2188
2556.91	1524	2220
2644.98	1564	2236
2652.71	1564	2236
2660.06	1564	2236
2684.99	1516	2268
2692.75	1516	2268
2700.67	1516	2268
2700.8	1524	2268
2708.43	1524	2268
2452.84	1556	2172
2460.46	1556	2172
2468.19	1556	2172
2532.68	1508	2212
2540.03	1508	2212
2652.89	1540	2244
2660.13	1540	2244
2684.93	1452	2292
2692.86	1452	2292
2700.32	1452	2292
2644.98	1476	2268
2652.73	1476	2268
2660.67	1476	2268
2668.37	1476	2268
2188.82	1596	2076
2196.4	1596	2076
2204.13	1596	2076
2564.3	1580	2196
2620.87	1556	2228
2628.47	1556	2228
2636.25	1556	2228
2836.96	1452	2340
2844.82	1452	2340
2852.48	1452	2340
2660.86	1500	2260
2668.3	1500	2260
2252.86	1588	2100
2260.55	1588	2100
2268.27	1588	2100
2589	1596	2204
2596.43	1596	2204
2676.98	1460	2284
2684.51	1460	2284
2692.19	1460	2284
2548.92	1500	2228
2556.93	1500	2228
2580.89	1588	2204
2588.93	1588	2204
2596.5	1588	2204
2220.94	1572	2100
2228.71	1572	2100
2236.46	1572	2100
2244.1	1572	2100
2508.79	1444	2244
2516.63	1444	2244
2524.38	1444	2244
2532.13	1444	2244
2516.86	1460	2236
2524.84	1460	2236
2532.43	1460	2236
2388.82	1588	2140
2396.46	1588	2140
2404.14	1588	2140
2428.99	1580	2156
2436.78	1580	2156
2444.48	1580	2156
2452.32	1580	2156
2476.94	1540	2188
2484.58	1540	2188
2492.1	1540	2188
2684.93	1492	2276
2692.84	1492	2276
2700.29	1492	2276
2676.95	1444	2292
2684.78	1444	2292
2692.46	1444	2292
2540.99	1452	2252
2548.95	1452	2252
2556.93	1452	2252
2836.66	1444	2348
2844.22	1444	2348
2852.21	1444	2348
2676.55	1508	2260
2372.59	1596	2132
2380.42	1596	2132
2388.11	1596	2132
2693	1532	2268
2700.72	1532	2268
2708.57	1532	2268
2668.85	1548	2252
2676.76	1548	2252
2684.24	1548	2252
2612.88	1572	2220
2620.48	1572	2220
2492.79	1468	2228
2500.69	1468	2228
2508.6	1468	2228
2516.5	1468	2228
2268.83	1580	2108
2276.72	1580	2108
2284.11	1580	2108
2300.93	1460	2172
2860.88	1460	2356
2868.88	1460	2356
2892.65	1460	2356
2452.7	1572	2164
2460.47	1572	2164
2468.03	1572	2164
2636.76	1484	2260
2644.24	1484	2260
2652.08	1484	2260
2516.89	1484	2228
2524.65	1484	2228
2532.58	1484	2228
2540.48	1484	2228
2548.25	1484	2228
2556.14	1484	2228
2036.71	1572	2044
2044.51	1572	2044
2684.81	1468	2284
2692.6	1468	2284
2668.34	1564	2244
2508.73	1548	2196
2516.65	1548	2196
2524.46	1548	2196
2532.06	1548	2196
2516.91	1564	2188
2524.66	1564	2188
2532.32	1564	2188
2820.18	1468	2348
2828.2	1468	2348
2516.55	1476	2228
2524.48	1476	2228
2540.02	1476	2228
2860.33	1452	2348
2604.69	1596	2212
2612.32	1596	2212
2620.19	1596	2212
2548.89	1508	2220
2556.84	1508	2220
2476.8	1556	2180
2484.49	1556	2180
2492.29	1556	2180
2700.74	1460	2292
2708.52	1460	2292
2716.23	1460	2292
2708.93	1452	2300
2716.85	1452	2300
2724.44	1452	2300
2668.87	1540	2252
2676.45	1540	2252
2572.9	1580	2204
2580.64	1580	2204
2588.59	1580	2204
2212.89	1596	2084
2220.64	1596	2084
2228.4	1596	2084
2676.82	1476	2276
2684.76	1476	2276
2692.22	1476	2276
2708.92	1516	2276
2716.75	1516	2276
2820.84	1476	2356
2828.99	1476	2356
2837	1476	2356
2276.89	1588	2108
2284.69	1588	2108
2292.39	1588	2108
2300.14	1588	2108
2676.86	1500	2268
2684.46	1500	2268
2252.88	1572	2108
2260.64	1572	2108
2268.41	1572	2108
2276.14	1572	2108
2716.96	1524	2276
2724.03	1524	2276
2604.61	1588	2212
2612.34	1588	2212
2628.07	1588	2212
2644.91	1556	2236
2652.74	1556	2236
2540.96	1444	2252
2548.94	1444	2252
2556.53	1444	2252
2540.69	1460	2244
2460.86	1580	2164
2468.47	1580	2164
2476.2	1580	2164
2412.83	1588	2148
2420.8	1588	2148
2428.51	1588	2148
2500.77	1540	2196
2508.72	1540	2196
2516.48	1540	2196
2700.99	1444	2300
2708.82	1444	2300
2716.34	1444	2300
2692.84	1548	2260
2684.79	1508	2268
2692.48	1508	2268
2700.13	1508	2268
2396.59	1596	2140
2404.06	1596	2140
2708.75	1492	2284
2716	1492	2284
2660.79	1484	2268
2668.7	1484	2268
2676.1	1484	2268
2628.77	1572	2228
2636.69	1572	2228
2644.06	1572	2228
2524.97	1468	2236
2532.83	1468	2236
2540.28	1468	2236
2716.94	1532	2276
2724.58	1532	2276
2292.91	1580	2116
2300.8	1580	2116
2476.74	1572	2172
2484.6	1572	2172
2700.9	1468	2292
2708.91	1468	2292
2716.21	1468	2292
2724.01	1468	2292
2837	1468	2356
2900.31	1460	2364
2908.03	1460	2364
2676.97	1564	2252
2684.67	1564	2252
2628.92	1596	2220
2636.01	1596	2220
2532.87	1476	2236
2548.84	1476	2236
2556.88	1476	2236
2860.91	1444	2364
2868.5	1444	2364
2876.03	1444	2364
2236.85	1596	2092
2244.28	1596	2092
2252.14	1596	2092
2540.66	1564	2196
2548.23	1564	2196
2556.02	1564	2196
2596.95	1580	2212
2604.59	1580	2212
2612.33	1580	2212
2684.92	1540	2260
2692.62	1540	2260
2284.73	1572	2116
2292.63	1572	2116
2300.23	1572	2116
2700.61	1476	2284
2500.93	1556	2188
2508.76	1556	2188
2516.48	1556	2188
2540.89	1548	2204
2548.8	1548	2204
2556.76	1548	2204
2724.62	1460	2300
2868.29	1452	2356
2732.59	1452	2308
2740.44	1452	2308
2660.86	1556	2244
2668.26	1556	2244
2620.76	1588	2220
2436.84	1588	2156
2444.8	1588	2156
2452.45	1588	2156
2460	1588	2156
2692.87	1500	2276
2700.69	1500	2276
2724.62	1516	2284
2732.23	1516	2284
2484.71	1580	2172
2492.52	1580	2172
2500.11	1580	2172
2524.99	1540	2204
2532.76	1540	2204
2540.55	1540	2204
2548.79	1468	2244
2556.54	1468	2244
2412.76	1596	2148
2420.8	1596	2148
2428.4	1596	2148
2436.14	1596	2148
2548.95	1460	2252
2556.92	1460	2252
2732.41	1524	2284
2740.15	1524	2284
2852.82	1476	2372
2684.8	1484	2276
2692.81	1484	2276
2700.13	1484	2276
2708.86	1508	2276
2724.93	1492	2292
2732.88	1492	2292
2740.53	1492	2292
2652.91	1572	2236
2660.37	1572	2236
2724.61	1444	2308
2732.11	1444	2308
2740.03	1444	2308
2732.25	1468	2300
2492.98	1572	2180
2500.81	1572	2180
2508.58	1572	2180
2516.03	1572	2180
2700.95	1548	2268
2260.92	1596	2100
2268.71	1596	2100
2276.48	1596	2100
2732.58	1532	2284
2740.33	1532	2284
2845	1468	2364
2852.81	1468	2364
2860.48	1468	2364
2868.12	1468	2364
2884.2	1444	2372
2892.12	1444	2372
2900.21	1444	2372
2908.13	1444	2372
2916.05	1444	2372
2693	1564	2260
2620.68	1580	2220
2628.31	1580	2220
2644.59	1596	2228
2652.33	1596	2228
2916.21	1460	2372
2964.14	1460	2372
2700.87	1540	2268
2708.71	1540	2268
2716.33	1540	2268
2524.77	1556	2196
2532.74	1556	2196
2540.28	1556	2196
2708.93	1476	2292
2716.8	1476	2292
2732.84	1460	2308
2740.03	1460	2308
2676.89	1556	2252
2684.72	1556	2252
2748.92	1452	2316
2756.74	1452	2316
2764.21	1452	2316
2708.98	1500	2284
2716.84	1500	2284
2876.64	1452	2364
2884.32	1452	2364
2637	1588	2228
2644.68	1588	2228
2652.32	1588	2228
2468.71	1588	2164
2476.41	1588	2164
2740.95	1516	2292
2748.38	1516	2292
2748.84	1524	2292
2756.08	1524	2292
2548.72	1540	2212
2556.68	1540	2212
2740.51	1468	2308
2748.06	1468	2308
2508.91	1580	2180
2516.67	1580	2180
2524.48	1580	2180
2444.71	1596	2156
2452.58	1596	2156
2460.19	1596	2156
2668.71	1572	2244
2676.35	1572	2244
2716.98	1508	2284
2724.24	1508	2284
2748.83	1444	2316
2756.79	1444	2316
2709	1548	2276
2716.57	1548	2276
2708.78	1484	2284
2748.94	1492	2300
2756.27	1492	2300
2524.92	1572	2188
2532.62	1572	2188
2540.43	1572	2188
2284.93	1596	2108
2292.68	1596	2108
2300.54	1596	2108
2660.88	1596	2236
2924.43	1460	2380
2932.34	1460	2380
2940.27	1460	2380
2948.36	1460	2380
2956.38	1460	2380
2972.51	1460	2380
2980.33	1460	2380
2988.55	1460	2380
2996.17	1460	2380
3004.14	1460	2380
2924.39	1468	2372
2725	1476	2300
2732.69	1476	2300
2740.58	1476	2300
2748.98	1532	2292
2756.43	1532	2292
2924.29	1444	2380
2948.21	1444	2380
2956.22	1444	2380
2964.22	1444	2380
2701	1564	2268
2708.71	1564	2268
2724.93	1500	2292
2732.89	1500	2292
2740.79	1500	2292
2548.99	1556	2204
2556.87	1556	2204
2748.99	1460	2316
2756.88	1460	2316
2764.62	1460	2316
2636.88	1580	2228
2644.44	1580	2228
2724.92	1540	2276
2772.57	1452	2324
2788.78	1452	2324
2796.91	1452	2324
2660.92	1588	2236
2668.06	1588	2236
2892.58	1452	2372
2900.24	1452	2372
2908.1	1452	2372
2924.02	1452	2372
2484.91	1588	2172
2492.74	1588	2172
2500.24	1588	2172
2508.07	1588	2172
2764.43	1524	2300
2468.73	1596	2164
2476.56	1596	2164
2484.06	1596	2164
2532.74	1580	2188
2540.55	1580	2188
2548.27	1580	2188
2692.97	1556	2260
2756.96	1516	2300
2764.73	1444	2324
2788.71	1444	2324
2796.59	1444	2324
2804.01	1444	2324
2724.84	1548	2284
2740.84	1548	2284
2732.75	1508	2292
2740.73	1508	2292
2756.97	1468	2316
2764.7	1468	2316
2772.48	1468	2316
2684.87	1572	2252
2692.28	1572	2252
3012.63	1460	2388
3020.56	1460	2388
3028.42	1460	2388
2669	1596	2244
2676.22	1596	2244
2684.73	1596	2244
2716.84	1484	2292
2724.57	1484	2292
2732.14	1484	2292
2548.84	1572	2196
2556.44	1572	2196
2764.32	1492	2308
2748.99	1500	2300
2756.76	1500	2300
2652.98	1580	2236
2660.91	1580	2236
2668.14	1580	2236
2716.91	1564	2276
2724.73	1564	2276
2732.8	1540	2284
2740.64	1540	2284
2932.89	1444	2388
2940.55	1444	2388
2972.49	1444	2388
2980.47	1444	2388
2988.7	1444	2388
2996.26	1444	2388
3004.01	1444	2388
2764.85	1532	2300
2748.88	1476	2308
2756.64	1476	2308
2772.92	1460	2324
2780.09	1460	2324
2556.84	1580	2196
2780.58	1452	2332
2804.99	1452	2332
2812.97	1452	2332
2932.87	1468	2380
2940.94	1468	2380
2676.95	1588	2244
2516.59	1588	2180
2524.53	1588	2180
2916.35	1452	2380
2932.09	1452	2380
2940.12	1452	2380
2948.3	1452	2380
2956.32	1452	2380
2964.19	1452	2380
2972.12	1452	2380
2988.24	1452	2380
2492.74	1596	2172
2500.51	1596	2172
2508.02	1596	2172
2764.98	1516	2308
2772.37	1516	2308
2700.84	1572	2260
2748.84	1548	2292
2756.29	1548	2292
2772.99	1444	2332
2780.41	1444	2332
2812.87	1444	2332
2772.9	1524	2308
2748.99	1508	2300
2756.83	1508	2300
2700.9	1556	2268
2708.47	1556	2268
3036.94	1460	2396
3044.5	1460	2396
3052.5	1460	2396
3060.56	1460	2396
2740.91	1484	2300
2748.72	1484	2300
2780.42	1468	2324
2676.61	1580	2244
2772.76	1492	2316
2764.98	1476	2316
2772.39	1476	2316
2748.98	1540	2292
2756.44	1540	2292
3012.88	1444	2396
3020.71	1444	2396
3028.68	1444	2396
3036.02	1444	2396
2532.93	1588	2188
2540.7	1588	2188
2548.4	1588	2188
2684.89	1588	2252
2692.5	1588	2252
2516.82	1596	2180
2524.64	1596	2180
2532.43	1596	2180
2764.29	1500	2308
2948.92	1468	2388
2956.84	1468	2388
2964.92	1468	2388
2972.91	1468	2388
2788.34	1460	2332
2980.67	1452	2388
2996.93	1452	2388
3004.43	1452	2388
3012.45	1452	2388
3020.17	1452	2388
2708.68	1572	2268
2716.45	1572	2268
2764.91	1508	2308
2772.08	1508	2308
2764.89	1548	2300
2756.97	1484	2308
2764.05	1484	2308
2716.93	1556	2276
2724.71	1556	2276
2684.9	1580	2252
2692.54	1580	2252
2700.99	1588	2260
2556.91	1588	2196
2780.95	1476	2324
2781	1492	2324
2788.39	1468	2332
2764.77	1540	2300
2772.86	1500	2316
3044.8	1444	2404
3052.46	1444	2404
3060.86	1444	2404
2796.92	1460	2340
2804.6	1460	2340
2812.15	1460	2340
2540.79	1596	2188
2548.59	1596	2188
2556.43	1596	2188
3028.96	1452	2396
3036.66	1452	2396
3044.52	1452	2396
2700.91	1580	2260
2772.48	1484	2316
2796.84	1468	2340
2804.33	1468	2340
2796.53	1476	2340
3052.9	1452	2404
3060.79	1452	2404
2781	1484	2324
2708.52	1580	2268
2812.43	1468	2348
2805	1476	2348
1884.8	1604	1980
1892.48	1604	1980
1900.21	1604	1980
1909	1604	1988
1916.86	1604	1988
2052.47	1604	2028
2060.31	1604	2028
1925	1604	1996
1932.97	1604	1996
1940.5	1604	1996
1948.52	1604	1996
2068.87	1612	2036
2076.72	1612	2036
2084.52	1612	2036
2068.73	1604	2036
2076.55	1604	2036
2084.31	1604	2036
1956.9	1604	2004
1964.8	1604	2004
2124.72	1620	2052
2132.56	1620	2052
2140.56	1620	2052
2092.96	1612	2044
2100.74	1612	2044
2108.85	1612	2044
2116.18	1612	2044
